-0.012437 0.021513 0.014345 -0.076589 0.019059 0.996881
0.056596 0.010947 0.014121 0.834917 0.451277 0.315060
0.020255 0.057130 0.014817 -0.053639 0.036030 0.997910
0.029230 0.063718 0.008956 0.847522 0.509176 0.149819
0.000106 0.005300 -0.022259 -0.004900 0.009803 -0.999940
0.023825 0.032453 -0.021554 0.059054 0.041762 -0.997381
-0.027287 -0.014155 0.013838 -0.054845 -0.011856 0.998424
0.006585 0.034958 0.015057 -0.060329 0.040845 0.997343
-0.026962 0.039844 -0.000092 -0.437581 0.895898 -0.076739
-0.023179 -0.058238 0.002120 0.410966 -0.911371 -0.022571
-0.029809 -0.017791 0.013638 -0.058826 -0.021419 0.998038
0.020578 -0.028346 0.014446 -0.015427 -0.059824 0.998090
-0.021319 -0.006681 0.014206 -0.062562 0.004365 0.998032
0.006140 -0.023441 0.014562 -0.013874 -0.049542 0.998676
0.052619 -0.017752 0.010897 0.481258 -0.875013 -0.052368
0.016175 -0.002047 0.015570 -0.022075 -0.027347 0.999382
0.010092 0.038415 0.015210 -0.049929 0.017154 0.998605
0.019166 0.061082 -0.019871 -0.186154 0.484520 -0.854744
-0.047791 0.009114 -0.021311 0.063748 -0.031777 -0.997460
-0.029749 -0.058636 -0.010558 0.188041 -0.979893 0.066715
0.008014 -0.020678 0.014719 -0.015580 -0.053812 0.998430
-0.062496 0.020683 -0.019400 -0.476969 0.876683 -0.062672
-0.004779 0.050882 -0.000620 -0.448861 0.890855 -0.070014
0.063340 -0.008246 0.016150 -0.042578 0.007691 0.999064
0.041321 0.037711 -0.018446 0.413342 0.208034 -0.886493
-0.067661 0.018397 0.000928 -0.739232 0.670708 -0.060716
0.025447 0.065514 0.002009 -0.110299 0.988030 -0.107846
-0.003996 -0.045427 -0.020811 0.123911 -0.155026 -0.980109
-0.026388 -0.037853 -0.020924 -0.117697 0.036849 -0.992366
-0.021703 -0.056931 -0.015963 0.434594 -0.897607 -0.073684
0.013903 0.043425 0.015215 -0.048850 0.042045 0.997921
-0.002612 0.004455 0.015138 -0.044659 0.000496 0.999002
0.043131 -0.012210 -0.021596 0.026467 -0.061017 -0.997786
0.017466 -0.033059 -0.020270 0.080847 -0.142381 -0.986505
-0.058107 -0.005430 0.008782 -0.895687 -0.431203 0.108670
-0.036681 -0.043190 -0.019850 -0.633164 -0.330956 -0.699694
0.025720 0.010861 0.015926 -0.015554 -0.006615 0.999857
0.032020 0.028141 0.015855 0.005875 0.013101 0.999897
0.044693 0.034398 -0.014238 0.888639 0.442613 -0.120058
0.052646 -0.017412 0.005047 0.485162 -0.873130 -0.047566
0.022947 -0.010462 0.015380 -0.010477 -0.045144 0.998926
-0.025863 0.039904 -0.017784 -0.450582 0.892120 -0.033130
0.022011 -0.009773 -0.022338 0.030592 -0.017120 -0.999385
-0.064606 0.006224 0.005191 -0.878608 -0.463032 0.116830
0.034025 0.056032 -0.001137 0.887594 0.459688 0.029397
-0.051769 -0.017640 0.008453 -0.876612 -0.469831 0.103971
0.012665 0.011156 0.015656 -0.026790 -0.004858 0.999629
-0.013570 -0.025885 0.014110 -0.025962 -0.034833 0.999056
0.054675 0.017008 0.004033 0.877810 0.476023 0.053407
0.006582 0.046704 0.014612 -0.085507 0.084143 0.992778
0.056388 0.002957 0.015796 0.003851 0.020572 0.999781
0.041258 0.037035 -0.018494 0.234840 0.106973 -0.966130
0.034163 0.044986 0.015287 0.048680 0.027817 0.998427
-0.017362 -0.013587 0.014321 -0.048370 -0.025126 0.998513
0.000708 0.047483 -0.020322 -0.033580 0.098513 -0.994569
-0.004217 -0.048206 -0.011564 0.461997 -0.886603 -0.022236
-0.041669 -0.037749 -0.012779 -0.835612 -0.439686 -0.329285
0.037229 0.049111 -0.012567 0.885681 0.462919 -0.035708
0.064100 -0.011227 0.015765 0.248592 -0.618459 0.745460
-0.038893 -0.014297 -0.020178 0.082968 -0.027661 -0.996168
-0.031308 0.017145 0.012976 -0.082279 0.047612 0.995471
-0.011350 -0.051948 -0.011312 0.447646 -0.893909 -0.023248
-0.006425 0.022956 0.014709 -0.059165 0.021616 0.998014
0.063781 -0.011475 0.006905 0.513012 -0.854054 -0.086083
-0.029428 -0.037843 -0.020528 -0.132727 0.043149 -0.990213
0.042951 0.039345 -0.006836 0.877565 0.479440 -0.004174
-0.009435 -0.009616 0.014741 -0.034221 -0.014895 0.999303
0.039349 -0.019040 0.015212 -0.035219 -0.045519 0.998342
0.050545 0.024664 0.004906 0.879929 0.470284 0.067515
0.005635 -0.012327 0.015058 -0.019762 -0.031020 0.999323
0.006823 -0.042549 -0.001595 0.479655 -0.877456 -0.001115
0.017946 0.031321 0.015645 -0.021315 0.029277 0.999344
0.037229 0.049111 -0.012567 0.885681 0.462919 -0.035708
-0.047611 0.029403 0.002112 -0.464053 0.884018 -0.056282
-0.004081 0.051506 0.002242 -0.449136 0.889535 -0.083685
0.041564 -0.009102 0.015683 -0.012738 -0.038525 0.999176
0.051776 0.010663 -0.019152 0.202993 0.122058 -0.971543
-0.032546 -0.052629 -0.017515 -0.844030 -0.470774 -0.256875
-0.047813 -0.000393 0.012379 -0.072578 0.000956 0.997362
0.028101 0.067019 -0.014710 0.766235 0.600125 0.229639
0.054675 0.017008 0.004033 0.877810 0.476023 0.053407
-0.023842 -0.058484 0.006384 0.402068 -0.915608 -0.001553
-0.041429 0.029927 -0.021021 0.006127 0.041517 -0.999119
-0.043381 -0.030747 -0.019455 -0.844001 -0.469460 -0.259363
-0.041013 -0.040063 0.001442 -0.882023 -0.467017 0.062696
-0.044320 0.008030 -0.021000 0.086440 -0.006722 -0.996234
-0.019550 -0.055910 -0.015487 0.445566 -0.893741 -0.051944
0.005192 -0.043418 -0.003857 0.477253 -0.878705 -0.010372
0.011803 0.004165 -0.022263 -0.023726 0.040142 -0.998912
0.061527 -0.004202 -0.018894 0.367789 0.234711 -0.899801
0.066112 -0.010226 0.012400 0.705758 -0.706062 -0.058150
0.049819 0.024409 0.011858 0.869584 0.470966 0.148371
-0.036114 0.013946 -0.020577 0.004647 -0.028136 -0.999593
-0.062255 0.011316 -0.022067 0.012912 -0.011858 -0.999846
0.050003 -0.018959 0.014844 0.354987 -0.688305 0.632630
-0.034386 -0.033592 -0.019727 0.008886 0.036830 -0.999282
0.012193 -0.039620 0.000730 0.483408 -0.875363 -0.007514
0.044010 0.036060 -0.010982 0.876030 0.480381 -0.042493
-0.038479 -0.042940 0.008787 -0.877927 -0.462536 0.123709
0.039842 0.016063 0.015985 0.014443 0.011551 0.999829
-0.023967 0.026291 0.013140 -0.097544 0.045896 0.994172
-0.032284 -0.015687 0.013477 -0.093993 -0.008670 0.995535
-0.012596 0.046528 -0.018323 -0.463517 0.884316 -0.056010
0.025335 0.058626 0.014916 -0.029733 0.039131 0.998792
0.016893 0.050842 -0.020810 -0.018928 0.069920 -0.997373
-0.039671 -0.038232 0.011599 -0.477326 -0.225862 0.849203
0.016856 -0.010974 -0.022415 -0.006553 -0.024966 -0.999667
0.025275 -0.010117 0.015432 -0.013063 -0.047693 0.998777
0.056273 0.012294 0.011844 0.870801 0.466469 0.155283
-0.010186 -0.051027 -0.017858 0.430869 -0.878540 -0.206204
0.016030 0.060595 -0.008816 -0.420305 0.907310 -0.011491
0.011133 0.013566 -0.022211 -0.005455 0.015920 -0.999858
0.035284 0.046739 0.015207 0.233859 0.106008 0.966474
-0.004852 -0.048585 0.010214 0.443716 -0.896091 -0.011684
0.002379 -0.044834 0.010447 0.458804 -0.888537 0.001133
0.001956 -0.044242 -0.019343 0.434224 -0.809918 -0.394313
0.016452 0.035752 0.015537 -0.032989 0.010886 0.999396
0.014709 0.059290 0.014336 -0.116346 0.123739 0.985471
0.040279 0.036709 -0.018782 0.230942 0.129432 -0.964320
0.041917 0.038237 -0.017718 0.746575 0.321408 -0.582514
-0.028811 0.015951 -0.020966 -0.061779 -0.021680 -0.997854
-0.030119 -0.013405 -0.020105 -0.131276 -0.022543 -0.991089
0.034857 -0.026841 -0.015151 0.508131 -0.852821 -0.120418
0.032316 -0.028458 -0.004417 0.488973 -0.872172 -0.014844
-0.046918 -0.027691 0.005845 -0.877582 -0.462821 0.125091
0.040399 0.043507 0.006592 0.868386 0.490527 0.072726
-0.000052 -0.044809 -0.020345 0.325167 -0.611522 -0.721324
0.020436 -0.006338 0.015523 -0.017664 -0.030877 0.999367
0.055572 -0.015537 0.001054 0.475918 -0.877392 -0.060704
-0.012637 -0.052709 -0.008046 0.456060 -0.889246 -0.035356
0.027474 0.031431 -0.021331 0.093300 0.049411 -0.994411
0.029230 0.063718 0.008956 0.847522 0.509176 0.149819
-0.031645 0.014287 0.013097 -0.079208 0.047370 0.995732
0.028229 0.066837 -0.013640 0.482793 0.875695 0.008322
-0.020710 -0.019675 -0.021346 -0.114788 0.003687 -0.993383
-0.012951 -0.052948 -0.005155 0.453773 -0.890839 -0.022277
0.014721 -0.022955 -0.021803 0.040765 -0.091038 -0.995013
-0.008312 0.011266 0.014793 -0.057153 0.008722 0.998327
0.021632 -0.014869 0.015203 -0.010912 -0.044355 0.998956
-0.036973 -0.045493 0.010403 -0.822765 -0.422722 0.379952
0.031630 -0.026905 0.014809 0.016253 -0.085538 0.996202
0.037476 0.046572 0.013429 0.824040 0.446788 0.348336
0.064328 -0.000396 -0.006824 0.848602 0.522919 -0.080183
0.057410 0.012428 -0.007640 0.849947 0.482456 -0.211722
-0.015106 -0.003043 0.014562 -0.058860 0.009778 0.998218
0.031517 -0.000689 0.015823 -0.006430 -0.021255 0.999753
0.036484 -0.026458 0.010455 0.466802 -0.883994 -0.025515
0.024662 0.062030 0.014870 -0.029973 0.048745 0.998361
-0.047662 -0.015264 0.011978 -0.129416 -0.048829 0.990387
-0.045878 -0.031263 -0.010721 -0.877761 -0.464990 -0.115410
-0.013704 -0.029424 0.013975 -0.023052 -0.043469 0.998789
0.004283 0.023238 0.015279 -0.042605 0.008913 0.999052
0.048037 -0.019910 0.003453 0.491641 -0.870197 -0.032340
0.040733 0.018558 0.015939 0.032412 0.018183 0.999309
0.003350 -0.040108 -0.020654 0.078914 -0.088248 -0.992968
0.038934 0.001704 0.015959 -0.007589 -0.021787 0.999734
0.025791 -0.002817 0.015713 -0.013460 -0.028802 0.999494
0.037718 0.027676 0.015781 0.015730 0.022815 0.999616
-0.013042 0.046370 -0.016280 -0.448688 0.893652 -0.008075
0.004973 0.035369 -0.021431 -0.028603 0.055025 -0.998075
0.007624 0.033088 0.015289 -0.048061 0.038842 0.998089
-0.028446 -0.059564 -0.018044 -0.269762 -0.940871 -0.204914
0.015905 0.044125 -0.021230 -0.008597 0.057994 -0.998280
0.021563 -0.034598 0.008383 0.478366 -0.878100 -0.010345
0.039224 0.046008 0.004038 0.896698 0.440226 0.046194
-0.065680 0.019480 0.010617 -0.289764 0.494012 0.819749
-0.000783 0.052593 -0.008716 -0.449108 0.893395 -0.012140
0.007181 -0.022190 0.014629 -0.010293 -0.046322 0.998874
-0.027526 -0.058981 -0.003432 -0.263957 -0.964302 -0.021184
-0.044816 0.015069 0.012075 -0.047812 0.023004 0.998591
0.016915 -0.003782 -0.022365 0.018639 0.011279 -0.999763
-0.053723 -0.010674 -0.020292 -0.826312 -0.436178 -0.356310
0.027800 -0.030307 -0.017330 0.470239 -0.854989 -0.218788
0.042290 0.035905 -0.018461 0.474982 0.223925 -0.851029
0.034977 -0.027324 0.010652 0.485419 -0.873866 -0.026958
-0.018024 -0.055574 0.009326 0.455547 -0.890183 0.007186
0.034221 0.042990 0.015365 0.051717 0.038964 0.997901
0.020250 0.034663 -0.021639 0.029095 0.037996 -0.998854
-0.032528 -0.051878 -0.018707 -0.823516 -0.466240 -0.323176
-0.001015 -0.037449 -0.021275 0.069805 -0.093868 -0.993134
0.017753 -0.036685 0.007043 0.470542 -0.882378 -0.000366
0.007382 0.000495 0.015398 -0.027891 -0.013366 0.999522
0.057932 -0.014321 0.001685 0.493025 -0.866619 -0.076798
0.050933 -0.018696 0.010096 0.480207 -0.875337 -0.056444
0.045047 -0.021197 -0.005685 0.498444 -0.866572 -0.024629
0.010590 -0.040445 0.008278 0.466566 -0.884353 0.015364
0.054569 0.004979 -0.019291 0.222185 0.135198 -0.965585
-0.011199 -0.028027 0.014096 -0.018558 -0.043067 0.998900
0.004887 -0.001490 -0.022335 -0.007278 0.005466 -0.999959
-0.008288 -0.050388 -0.011131 0.451674 -0.892080 -0.013561
-0.047871 0.015537 0.011963 -0.047383 0.017242 0.998728
0.026279 0.021602 -0.021847 0.055285 0.039185 -0.997701
-0.010256 0.025749 0.014406 -0.065077 0.030020 0.997429
-0.046099 0.020063 -0.021181 0.060295 0.000327 -0.998181
-0.003671 0.037285 -0.021048 -0.024919 0.073120 -0.997012
0.057689 0.004707 -0.018532 0.394096 0.203803 -0.896188
0.028949 0.033273 -0.021068 0.114624 0.057420 -0.991748
0.013992 -0.030835 -0.020874 0.067801 -0.145279 -0.987065
0.037325 0.049396 0.005498 0.863089 0.499265 0.076233
0.036401 -0.003526 0.015786 -0.011366 -0.032041 0.999422
0.052084 0.021197 0.008312 0.874048 0.473341 0.109490
-0.009649 -0.005423 0.014790 -0.042165 -0.010450 0.999056
-0.066629 0.017255 -0.022162 -0.141327 0.061328 -0.988062
0.015845 0.019081 0.015730 -0.030310 -0.001778 0.999539
0.011989 -0.020959 0.014765 -0.012737 -0.047259 0.998801
0.011875 -0.006193 0.015350 -0.022613 -0.031746 0.999240
0.032524 -0.028183 -0.014028 0.499124 -0.866501 -0.007143
0.067196 -0.009431 0.014971 0.948883 -0.219182 0.227111
0.024226 -0.032981 -0.007069 0.468963 -0.883217 0.001344
0.033395 0.056595 -0.010715 0.860786 0.494572 -0.120195
0.054549 0.006653 0.015816 0.035052 0.017273 0.999236
0.009904 0.005439 -0.022303 0.002814 0.001227 -0.999995
-0.013158 -0.015121 0.014467 -0.038683 -0.030687 0.998780
-0.045532 -0.031691 -0.002797 -0.882934 -0.468913 0.023396
0.048983 -0.018882 -0.008428 0.500924 -0.864323 -0.044953
0.049871 -0.006601 0.015865 -0.005360 -0.028494 0.999580
0.044579 0.025753 -0.019109 0.209908 0.099223 -0.972673
0.026900 -0.031223 -0.005695 0.521279 -0.853210 -0.017369
-0.046908 -0.027309 -0.012972 -0.840271 -0.444370 -0.310612
0.042870 0.003664 0.016010 -0.003150 -0.016087 0.999866
-0.036499 0.024062 0.012111 -0.088402 0.055237 0.994552
0.038846 0.027526 0.015773 0.032148 0.028380 0.999080
0.020514 -0.019035 -0.022033 0.012721 -0.079746 -0.996734
-0.012335 0.009293 -0.021949 -0.043065 0.008793 -0.999034
0.045377 0.032198 0.013143 0.851798 0.437531 0.288110
-0.001687 0.017240 0.015078 -0.053647 0.014900 0.998449
-0.005017 0.033413 0.014469 -0.076844 0.050957 0.995740
0.055873 0.005659 -0.018913 0.255132 0.152245 -0.954845
-0.017516 -0.015022 -0.021675 -0.098350 -0.007436 -0.995124
0.011543 0.040108 0.015246 -0.047954 0.033765 0.998279
0.048163 0.010077 0.015946 0.021435 0.012178 0.999696
-0.026050 -0.046044 0.012922 -0.044900 -0.030454 0.998527
0.001728 0.036346 -0.021278 -0.030361 0.060354 -0.997715
0.019601 0.034449 0.015672 -0.037438 0.011579 0.999232
0.035738 0.052116 -0.012012 0.884174 0.465750 -0.036251
-0.010567 0.022052 -0.021716 -0.016990 0.033356 -0.999299
-0.029555 -0.026006 0.013446 -0.062922 -0.031509 0.997521
-0.031645 0.014287 0.013097 -0.079208 0.047370 0.995732
0.002316 -0.045040 0.003524 0.446346 -0.894713 0.016253
-0.030733 -0.032555 0.013114 -0.078426 -0.031866 0.996411
0.037551 0.049523 0.001441 0.871665 0.488632 0.037934
0.018273 -0.025519 0.014565 -0.011712 -0.060524 0.998098
0.037719 -0.008789 -0.021890 0.032206 -0.033811 -0.998909
0.030501 0.057994 -0.018846 0.425202 0.161207 -0.890627
0.058018 0.010701 0.004842 0.881245 0.469092 0.057966
-0.004641 0.021827 -0.021816 -0.015460 0.033475 -0.999320
0.004956 0.014594 -0.022156 -0.015234 0.025347 -0.999563
0.016828 0.061165 -0.018190 -0.433930 0.900290 -0.034379
-0.025662 -0.017720 -0.020706 -0.138122 -0.003755 -0.990408
0.057478 0.010503 -0.012261 0.886016 0.453698 -0.095569
0.014572 -0.038286 -0.006227 0.480540 -0.876679 -0.022709
-0.040576 0.033229 0.003698 -0.466818 0.881996 -0.064538
-0.012465 -0.038939 0.013561 -0.010798 -0.049115 0.998735
0.065600 -0.010087 0.006182 0.737957 -0.672311 -0.058460
0.009402 -0.040820 -0.017147 0.448704 -0.879218 -0.160127
0.066388 -0.008084 -0.005156 0.718983 -0.694830 -0.016564
-0.033896 -0.010779 0.013396 -0.089032 -0.016462 0.995893
-0.000022 0.054355 0.010397 -0.445615 0.892820 -0.065568
0.053996 0.018719 -0.002197 0.881815 0.471464 0.011142
-0.035282 0.001024 -0.020283 0.032725 -0.016893 -0.999322
0.009191 0.057527 -0.004817 -0.424145 0.905070 -0.030809
-0.024108 -0.044750 -0.021281 -0.071042 0.011524 -0.997407
0.002909 0.054469 -0.006354 -0.442662 0.896489 -0.018926
0.027613 -0.030928 -0.011925 0.502462 -0.864597 -0.001854
-0.041730 -0.039147 -0.011704 -0.827412 -0.442860 -0.345347
0.048696 -0.018126 -0.018682 0.451579 -0.763096 -0.462343
0.019680 -0.028936 -0.020782 0.082268 -0.177241 -0.980723
0.003632 -0.012489 -0.022341 -0.000517 -0.000034 -1.000000
-0.045511 -0.027763 -0.018209 -0.836954 -0.452084 -0.308429
0.025693 0.062806 -0.019706 0.209279 0.030693 -0.977374
-0.033682 -0.055409 -0.009038 -0.903442 -0.425973 0.048374
-0.065651 0.008912 0.007577 -0.869878 -0.482947 0.100373
0.051409 -0.017601 -0.005183 0.499617 -0.865314 -0.040187
0.016828 0.061165 -0.018190 -0.433930 0.900290 -0.034379
-0.021678 -0.013853 -0.021202 -0.124201 0.009702 -0.992210
-0.053484 0.011210 0.011756 -0.039636 0.005551 0.999199
0.040411 0.010425 -0.021266 0.117295 0.076718 -0.990129
0.042290 0.035905 -0.018461 0.474982 0.223925 -0.851029
-0.014417 0.044098 0.012974 -0.083101 0.094348 0.992065
-0.026737 0.030873 0.012675 -0.109017 0.046801 0.992938
0.036775 0.038575 0.015381 0.063495 0.039916 0.997184
-0.035448 -0.005628 -0.020151 0.045307 -0.023250 -0.998703
0.013879 0.058384 -0.019981 -0.221001 0.409507 -0.885134
0.007624 0.033088 0.015289 -0.048061 0.038842 0.998089
-0.001103 0.053240 0.013267 -0.358678 0.580662 0.730878
0.016806 -0.037164 0.011648 0.480378 -0.875879 -0.045526
0.002471 0.005290 0.015294 -0.030836 -0.004518 0.999514
0.008365 0.058677 0.011173 -0.440846 0.895906 -0.054842
-0.008344 -0.044060 0.013307 -0.004865 -0.059711 0.998204
0.034094 -0.021559 -0.020894 0.122226 -0.281867 -0.951636
0.032188 0.059486 -0.000871 0.894900 0.445502 0.026108
0.058549 -0.013330 -0.007389 0.523540 -0.850275 -0.054214
0.060785 0.001803 0.015117 0.552378 0.340085 0.761065
0.044707 0.007766 0.016026 0.010838 0.006037 0.999923
0.007415 -0.033018 -0.021082 0.077254 -0.117886 -0.990018
-0.026931 -0.019417 -0.020496 -0.145633 -0.006381 -0.989318
-0.035654 -0.044735 0.012036 -0.401672 -0.172792 0.899334
-0.018656 0.025444 0.013741 -0.115813 0.048081 0.992107
-0.029900 0.037954 -0.013587 -0.437128 0.899346 -0.009755
0.028626 0.050525 -0.019865 0.159560 0.075131 -0.984325
-0.060867 0.022110 -0.005862 -0.470975 0.881646 -0.029708
-0.026455 -0.029978 0.013507 -0.054124 -0.037189 0.997841
-0.067297 0.010414 -0.002135 -0.884202 -0.467020 0.008909
0.020286 0.039287 0.015584 -0.023990 0.025276 0.999393
0.035226 -0.027099 0.006847 0.490318 -0.871334 -0.019091
0.033872 0.054752 -0.017174 0.789312 0.481686 -0.380742
-0.022850 -0.054833 -0.021479 0.042336 -0.055968 -0.997535
0.043132 0.000152 -0.021638 0.077077 0.041952 -0.996142
-0.014558 -0.008477 -0.021910 -0.081086 0.010464 -0.996652
0.003971 0.013144 0.015376 -0.042333 0.002362 0.999101
0.016380 -0.006591 -0.022441 0.018257 0.006109 -0.999815
-0.034033 -0.053614 -0.000877 -0.887911 -0.450898 0.091132
-0.048790 0.027402 0.011339 -0.106885 0.248096 0.962821
-0.049887 -0.022090 0.005635 -0.877365 -0.465886 0.114808
0.015614 0.062423 0.012510 -0.490837 0.867949 0.075787
-0.058836 -0.002475 -0.017617 -0.862533 -0.463238 -0.203586
-0.021428 0.043044 0.005190 -0.440788 0.894311 -0.076902
0.028005 0.066070 0.003659 -0.717613 0.674671 -0.172776
0.051359 0.021283 -0.015217 0.886167 0.443517 -0.134164
0.009503 -0.020496 0.014765 -0.018152 -0.054510 0.998348
0.057699 -0.006044 0.015950 -0.017698 -0.003861 0.999836
0.045254 0.025396 0.015503 0.054591 0.026577 0.998155
0.001148 -0.025923 -0.022068 0.028831 -0.057481 -0.997930
0.003984 0.000038 -0.022306 0.004212 0.016605 -0.999853
-0.022651 0.005176 -0.021192 -0.090773 -0.020337 -0.995664
-0.039260 0.015525 -0.020726 0.049662 -0.015322 -0.998649
0.046402 0.027184 -0.018492 0.405620 0.206994 -0.890296
0.006108 0.041361 0.014850 -0.073361 0.059487 0.995530
-0.025403 -0.049191 0.012850 -0.030993 -0.031775 0.999014
-0.023966 -0.055148 0.012718 -0.021041 -0.022023 0.999536
-0.052840 0.023428 -0.021668 0.001843 0.077252 -0.997010
0.014922 -0.005620 0.015434 -0.014194 -0.029299 0.999470
-0.034064 -0.027302 -0.019535 0.000053 0.019598 -0.999808
0.049235 -0.015024 0.015595 -0.023632 -0.027051 0.999355
-0.050879 -0.019212 -0.014332 -0.884186 -0.420040 -0.204404
0.027898 0.002153 -0.022253 0.021142 0.008702 -0.999739
0.037949 -0.025749 0.011197 0.464178 -0.884329 -0.050013
-0.030616 -0.009675 0.013658 -0.048591 0.007398 0.998791
0.052297 0.021931 -0.004675 0.879014 0.476540 0.015630
0.001788 0.055255 0.010976 -0.455660 0.889810 -0.024757
-0.016626 -0.017001 0.014271 -0.043626 -0.034945 0.998437
-0.014193 0.038283 0.013445 -0.094324 0.068091 0.993210
0.024086 0.064355 -0.016990 -0.413846 0.895857 0.161775
0.000234 -0.045965 -0.010286 0.457580 -0.889037 -0.015275
0.002889 0.044276 0.014470 -0.083578 0.076541 0.993557
-0.040504 -0.038914 -0.015349 -0.867054 -0.449965 -0.213889
0.035406 0.052496 0.006433 0.870063 0.486040 0.082188
-0.009328 0.048389 -0.003689 -0.449271 0.892332 -0.043578
-0.010900 0.048391 0.005904 -0.454017 0.887451 -0.079370
0.030886 0.026060 0.015874 0.004317 0.010708 0.999933
-0.024804 0.037483 -0.020757 -0.014409 0.072800 -0.997242
0.007606 0.049351 0.014424 -0.089952 0.056629 0.994335
-0.059177 0.022530 -0.018714 -0.476671 0.876757 -0.063895
0.066562 -0.007592 -0.014070 0.857912 -0.501447 -0.111969
-0.033801 0.016419 0.012798 -0.081318 0.038948 0.995927
-0.017973 0.038692 0.013078 -0.090589 0.069065 0.993491
0.057924 -0.014174 0.000255 0.500940 -0.862541 -0.071289
0.049871 -0.006601 0.015865 -0.005360 -0.028494 0.999580
-0.033035 0.011289 -0.020581 -0.039430 -0.032849 -0.998682
0.056502 -0.015304 0.004591 0.459553 -0.886285 -0.057523
0.000830 0.053368 -0.015565 -0.445265 0.895340 -0.010228
-0.060970 0.021453 -0.019795 -0.463619 0.879328 -0.108810
-0.038833 -0.026053 0.012655 -0.111260 -0.037069 0.993100
-0.067346 0.016227 -0.021784 -0.577431 -0.312957 -0.754076
0.039042 0.017297 0.015975 0.007388 0.008126 0.999940
0.051209 0.015686 -0.018697 0.266523 0.140934 -0.953469
0.005108 0.030400 0.015161 -0.050211 0.020265 0.998533
-0.014275 -0.052115 -0.020935 0.296033 -0.541907 -0.786576
-0.060858 0.006933 -0.021978 -0.045344 -0.031731 -0.998467
-0.032324 0.030441 -0.020887 -0.015646 0.006705 -0.999855
0.023234 0.058126 0.014888 -0.015075 0.035929 0.999241
0.052297 0.021931 -0.004675 0.879014 0.476540 0.015630
0.030853 0.058208 0.014503 0.615601 0.363203 0.699371
0.024450 -0.032957 0.002042 0.492210 -0.870464 -0.004551
0.028020 0.065628 0.002389 -0.699897 0.695704 -0.161682
0.019511 0.051553 -0.020768 0.021882 0.060915 -0.997903
0.053661 -0.015959 -0.010757 0.516511 -0.854665 -0.052576
-0.013172 -0.047139 -0.021218 0.041355 -0.051258 -0.997829
0.000476 -0.045869 0.008457 0.449926 -0.892632 0.027824
-0.031466 -0.049608 -0.020608 -0.198144 -0.053115 -0.978733
-0.007473 0.040676 0.013879 -0.081171 0.066459 0.994482
0.038386 0.039604 0.015211 0.075160 0.080067 0.993952
0.044147 -0.009389 0.015696 -0.013929 -0.030615 0.999434
0.020693 0.062745 -0.018727 -0.375213 0.827144 -0.418387
0.017634 -0.005332 -0.022364 0.018563 0.010511 -0.999772
0.059823 -0.013154 0.015751 0.218957 -0.501754 0.836840
-0.069612 0.017629 0.008427 -0.747434 0.653936 -0.117087
0.017248 0.037141 -0.021585 0.005296 0.042811 -0.999069
0.041217 0.041986 0.006523 0.884636 0.462755 0.057239
0.044394 -0.005835 0.015820 -0.010530 -0.027272 0.999573
0.064498 -0.010213 -0.002647 0.556456 -0.828149 -0.067280
-0.038916 0.009397 -0.020617 0.058189 -0.014935 -0.998194
-0.042744 -0.036377 0.003788 -0.886742 -0.440827 0.139141
0.025470 0.067332 0.014492 -0.055664 0.497802 0.865502
0.040011 -0.022409 0.015099 0.034213 -0.143335 0.989083
-0.054573 -0.011893 -0.014633 -0.856569 -0.471196 -0.210391
0.066700 -0.005353 0.001400 0.889140 0.455224 0.046920
0.020774 -0.017070 -0.022140 0.034366 -0.049694 -0.998173
0.009628 0.032408 0.015366 -0.044010 0.025565 0.998704
0.034075 -0.002707 0.015786 -0.012360 -0.029039 0.999502
0.024135 -0.020856 0.014924 -0.013610 -0.050081 0.998652
-0.036387 -0.047030 0.008250 -0.878298 -0.471928 0.076661
-0.008416 0.013696 0.014763 -0.058220 0.007396 0.998276
-0.036399 -0.043045 0.011993 -0.337079 -0.167189 0.926513
-0.068436 0.012824 -0.004968 -0.884643 -0.466179 -0.009189
-0.018048 -0.055617 0.011380 0.375576 -0.875724 0.303398
0.030667 -0.021993 0.014961 -0.017763 -0.044321 0.998859
-0.019509 0.006473 0.014234 -0.076366 0.010176 0.997028
-0.010170 -0.027395 -0.022101 -0.024810 -0.021647 -0.999458
0.060814 -0.010965 -0.016834 0.498569 -0.865900 -0.040567
-0.054370 0.004153 -0.021736 0.049727 -0.012623 -0.998683
0.021747 0.063211 -0.006538 -0.398154 0.916807 -0.030640
0.024268 0.001068 -0.022429 0.019725 0.021924 -0.999565
-0.014890 -0.024572 0.014110 -0.034381 -0.028347 0.999007
-0.042431 -0.024929 -0.020433 0.154203 0.033993 -0.987454
0.057699 -0.006044 0.015950 -0.017698 -0.003861 0.999836
-0.000889 -0.046625 0.003169 0.465266 -0.885079 0.012783
0.024961 0.032417 0.015791 -0.007141 0.016353 0.999841
0.040011 -0.022409 0.015099 0.034213 -0.143335 0.989083
-0.062177 0.021378 -0.007329 -0.478943 0.877177 -0.034261
0.045880 0.032474 -0.011203 0.873260 0.476782 -0.100476
0.004013 0.014510 0.015362 -0.034027 0.018659 0.999247
-0.019942 0.005536 -0.021434 -0.085039 -0.014976 -0.996265
-0.059049 -0.003380 0.010108 -0.796824 -0.414863 0.439273
0.053854 -0.015989 -0.008521 0.507796 -0.859858 -0.052792
0.061819 -0.002461 0.015983 0.270373 0.185430 0.944730
-0.019316 -0.036920 -0.021572 -0.060737 -0.004739 -0.998143
-0.024556 0.020016 0.013442 -0.086850 0.056970 0.994591
0.022598 -0.034070 0.009896 0.475009 -0.879956 -0.006571
-0.001210 0.052435 -0.005342 -0.450856 0.892169 -0.027616
-0.013704 -0.029424 0.013975 -0.023052 -0.043469 0.998789
-0.038224 -0.024065 -0.019800 0.123668 -0.003933 -0.992316
0.051398 -0.018231 0.006387 0.499602 -0.865375 -0.039036
0.030676 0.047528 0.015365 0.035236 0.048316 0.998210
0.041217 0.041986 0.006523 0.884636 0.462755 0.057239
-0.008204 0.047005 -0.020200 -0.070116 0.204803 -0.976289
0.001449 -0.044989 -0.017460 0.472723 -0.859499 -0.194410
-0.046748 0.023615 -0.021229 0.060591 -0.008122 -0.998130
-0.000778 0.039503 0.014456 -0.083431 0.056100 0.994933
0.013602 0.020240 0.015649 -0.031067 0.003290 0.999512
0.009528 -0.041072 -0.007566 0.488214 -0.872724 0.000165
0.042625 0.039998 -0.004067 0.893706 0.448626 0.004929
-0.043078 0.025212 0.011571 -0.038592 0.062823 0.997278
-0.065766 0.011347 -0.018745 -0.869102 -0.465543 -0.167128
-0.033663 -0.004613 0.013435 -0.060348 0.022151 0.997932
0.051297 0.009298 -0.019448 0.205839 0.132345 -0.969595
-0.008877 -0.041775 0.013465 -0.007028 -0.054306 0.998500
-0.013365 -0.046678 0.013166 -0.007042 -0.048092 0.998818
0.002928 0.045530 0.014347 -0.082455 0.084506 0.993006
-0.045691 -0.026251 -0.019853 -0.708611 -0.427248 -0.561542
0.040476 -0.024149 0.005718 0.469163 -0.882510 -0.032584
0.056704 0.013211 0.004584 0.879352 0.472296 0.060641
-0.052537 0.018224 -0.021606 0.042863 0.006220 -0.999062
0.043735 0.020383 -0.019751 0.184225 0.137858 -0.973168
0.001251 -0.045497 -0.007173 0.474923 -0.879587 -0.027832
0.006332 0.037639 0.015035 -0.051755 0.010897 0.998600
0.025645 0.068049 0.012672 -0.190651 0.964067 -0.185008
-0.016692 -0.037674 0.013545 -0.018962 -0.045897 0.998766
0.047023 -0.005777 0.015819 -0.010093 -0.017928 0.999788
-0.016320 0.045869 0.008436 -0.451272 0.890596 -0.056506
-0.041926 0.026600 0.011524 -0.047437 0.049498 0.997647
-0.031501 -0.056081 -0.012366 -0.719007 -0.506244 -0.476179
0.028204 0.066167 -0.011679 0.631013 0.769353 0.099597
0.015303 -0.002824 -0.022400 0.014166 0.018730 -0.999724
-0.026244 0.002819 -0.020801 -0.095109 -0.024038 -0.995177
0.037536 -0.017893 -0.021436 0.061716 -0.139668 -0.988273
-0.003684 -0.047998 0.009519 0.472613 -0.881268 -0.001736
0.066131 -0.006268 0.011701 0.874022 0.472413 0.113626
0.007100 0.031734 0.015250 -0.050404 0.003579 0.998723
0.031279 0.059872 0.007660 0.870671 0.480015 0.107320
0.023945 0.057396 -0.020133 0.126831 0.051153 -0.990604
0.037406 0.049493 0.003554 0.869040 0.491588 0.055778
-0.051173 0.005158 -0.021537 0.071253 -0.007121 -0.997433
-0.067074 0.018136 -0.015472 -0.655057 0.755427 0.015192
-0.013703 -0.053378 0.005941 0.439125 -0.898356 0.011252
-0.014100 0.009709 0.014490 -0.056746 0.015983 0.998261
0.008073 -0.036875 -0.020556 0.084127 -0.101648 -0.991257
-0.023739 0.012383 0.013762 -0.083433 0.021102 0.996290
-0.030321 -0.049906 0.012503 -0.078529 -0.024770 0.996604
-0.021327 -0.010492 0.014200 -0.052495 -0.014495 0.998516
-0.051222 -0.019815 0.004533 -0.882043 -0.459616 0.103699
0.046254 -0.012228 -0.021513 0.037178 -0.071884 -0.996720
0.016447 0.029448 0.015665 -0.023976 0.012586 0.999633
-0.035542 -0.044668 -0.020309 -0.461224 -0.216301 -0.860515
-0.029927 -0.006169 -0.020251 -0.089831 -0.017752 -0.995799
-0.033045 0.026853 0.012263 -0.090139 0.062318 0.993978
-0.042291 0.032469 0.005598 -0.468600 0.881651 -0.055718
-0.036254 -0.032955 0.012583 -0.112600 -0.037090 0.992948
-0.029067 0.039220 0.011384 -0.442376 0.766011 0.466402
0.042726 -0.023054 0.009665 0.480355 -0.876028 -0.042826
-0.031809 -0.002109 0.013500 -0.069845 0.009377 0.997514
-0.057501 -0.001314 -0.021609 -0.432925 -0.218421 -0.874567
0.058341 -0.013635 -0.004060 0.511746 -0.857691 -0.049820
0.062315 0.001035 -0.013595 0.861213 0.474091 -0.183164
0.038456 0.040057 -0.018942 0.258030 0.098176 -0.961136
0.033872 0.054752 -0.017174 0.789312 0.481686 -0.380742
-0.059466 0.017017 0.011193 -0.058795 0.042925 0.997347
0.015836 0.009464 0.015725 -0.024925 -0.002397 0.999686
0.000120 0.053923 0.005434 -0.450382 0.887963 -0.093150
0.063842 -0.003768 0.015139 0.635827 0.406635 0.656028
0.001028 -0.045678 0.001202 0.446527 -0.894759 0.004397
0.050836 0.018049 0.015588 0.215469 0.179404 0.959889
0.010344 -0.039850 -0.019007 0.483656 -0.811301 -0.328432
0.059380 0.003460 -0.017858 0.646937 0.281715 -0.708597
-0.010256 0.025749 0.014406 -0.065077 0.030020 0.997429
0.035173 0.054173 -0.006449 0.878611 0.473775 0.059832
0.000869 0.038510 0.014655 -0.080845 0.054570 0.995232
0.023979 0.043402 0.015539 -0.010613 0.024618 0.999641
0.045073 0.033724 0.010163 0.874968 0.463220 0.140919
-0.003996 -0.045427 -0.020811 0.123911 -0.155026 -0.980109
0.053944 0.018796 -0.005695 0.885241 0.465011 0.010607
-0.026430 0.020410 -0.021158 -0.054185 0.000703 -0.998531
0.049226 0.004871 0.015943 0.014672 0.003430 0.999886
-0.044052 -0.033716 0.003516 -0.882187 -0.460237 0.099643
0.033032 -0.019050 -0.021467 0.053863 -0.098401 -0.993688
0.014335 -0.038426 -0.004226 0.480576 -0.876937 -0.005220
0.036783 0.009933 -0.021655 0.079558 0.054234 -0.995354
0.066135 -0.008754 -0.002995 0.826417 -0.556559 -0.085308
0.023251 -0.033556 -0.004370 0.488724 -0.872437 -0.001538
0.023979 0.043402 0.015539 -0.010613 0.024618 0.999641
-0.030240 -0.056142 0.012068 -0.537413 -0.282940 0.794438
-0.025210 0.018298 0.013483 -0.084343 0.045726 0.995387
-0.045681 -0.031475 -0.008711 -0.885018 -0.465457 0.009638
0.034635 0.055367 -0.008491 0.876431 0.471730 -0.096638
-0.006045 -0.049130 -0.016924 0.483267 -0.863975 -0.141419
0.021247 -0.034693 0.000949 0.480420 -0.876895 -0.015862
-0.008329 0.031680 0.014265 -0.082945 0.054506 0.995062
0.019426 0.060384 0.014660 -0.058946 0.057550 0.996601
-0.053716 -0.015862 -0.005156 -0.886599 -0.462368 -0.012576
0.025693 0.010426 -0.022165 0.017527 0.042722 -0.998933
0.042140 -0.007244 0.015753 -0.010519 -0.032054 0.999431
-0.036806 0.034573 -0.011241 -0.446194 0.894935 -0.001493
-0.044430 -0.031855 0.007836 -0.884068 -0.457001 0.097847
-0.006985 0.047638 -0.020161 -0.081849 0.197164 -0.976948
0.037877 -0.005486 -0.021965 0.033705 -0.011689 -0.999363
0.012714 -0.039185 -0.015524 0.482951 -0.874151 -0.051163
0.014288 -0.038454 -0.002192 0.476750 -0.879019 -0.005825
0.046471 0.032618 0.001813 0.878316 0.476904 0.033526
-0.011043 0.047112 -0.019735 -0.376561 0.748568 -0.545754
0.011942 0.058806 -0.018701 -0.372729 0.852859 -0.365656
-0.017967 -0.055572 -0.004530 0.442181 -0.896888 -0.008217
0.023284 -0.004135 0.015624 -0.023490 -0.032318 0.999202
0.000219 -0.046123 -0.001181 0.458292 -0.888776 0.006765
-0.017403 -0.026947 -0.021724 -0.084444 0.001369 -0.996427
-0.039144 0.033392 -0.011957 -0.457047 0.889437 0.003171
0.035963 -0.020747 -0.020926 0.131199 -0.289508 -0.948141
0.036862 0.044663 -0.018851 0.267210 0.117612 -0.956434
0.019586 0.062470 -0.018607 -0.361597 0.874432 -0.323443
-0.063092 0.007397 0.011072 -0.369611 -0.182130 0.911162
0.037796 0.048208 -0.010461 0.868125 0.469651 -0.160584
-0.051804 -0.014418 -0.020180 -0.848844 -0.429305 -0.308481
-0.010429 -0.037445 -0.021718 0.019677 -0.057439 -0.998155
-0.030870 -0.057748 -0.011684 -0.591897 -0.495299 -0.635874
-0.051617 -0.019848 -0.002960 -0.886626 -0.461978 0.021701
0.054375 0.015344 0.013705 0.830042 0.451279 0.327686
-0.038235 -0.044952 0.003890 -0.878837 -0.466368 0.100730
-0.037027 0.034695 -0.001798 -0.453324 0.889686 -0.054376
-0.028883 -0.057489 -0.020095 -0.678290 -0.316776 -0.663005
-0.046538 0.029514 -0.018935 -0.483146 0.865200 -0.134160
0.046402 0.027184 -0.018492 0.405620 0.206994 -0.890296
-0.027241 -0.054302 -0.021123 -0.144473 0.013876 -0.989411
-0.049548 0.026629 -0.021345 -0.228324 0.450159 -0.863264
-0.010294 0.047701 -0.018440 -0.432990 0.896533 -0.093534
0.027146 -0.001107 0.015782 -0.014187 -0.029456 0.999465
0.000214 0.053567 0.001263 -0.445154 0.891826 -0.080528
0.002696 0.050263 -0.020104 -0.031532 0.084416 -0.995932
0.058817 -0.008656 0.015972 -0.027327 -0.009187 0.999584
-0.061000 0.016101 -0.022002 0.021668 0.014518 -0.999660
0.035169 -0.021949 0.015047 -0.012181 -0.048447 0.998751
-0.042679 -0.027875 -0.020617 0.046880 -0.014780 -0.998791
-0.045217 -0.027429 -0.019338 -0.824023 -0.359706 -0.437720
-0.037912 -0.046351 -0.001384 -0.879930 -0.472804 0.046678
-0.035679 -0.003492 0.013294 -0.070305 0.009652 0.997479
-0.021676 0.022141 0.013589 -0.090703 0.052580 0.994489
-0.012807 -0.018182 0.014383 -0.050035 -0.032379 0.998222
-0.049587 -0.000210 0.012247 -0.079916 0.002581 0.996798
0.034412 0.053195 0.011524 0.859098 0.477977 0.182997
-0.052710 -0.005123 -0.021483 0.071720 -0.020359 -0.997217
0.061688 -0.012669 0.006793 0.479363 -0.873036 -0.089550
-0.050078 0.027472 -0.016317 -0.480091 0.876999 -0.019611
0.033081 0.026473 0.015859 0.006293 0.009455 0.999935
0.065965 -0.009152 -0.001690 0.768131 -0.637137 -0.063489
-0.019476 -0.040950 -0.021514 -0.042405 -0.014079 -0.999001
0.036842 0.049339 0.009632 0.864679 0.489768 0.111613
0.059578 0.007698 0.005290 0.883472 0.464120 0.063792
-0.020314 -0.056641 0.011674 0.408053 -0.787454 0.461962
-0.018663 0.023869 0.013805 -0.104900 0.038106 0.993752
0.035542 0.051342 0.011114 0.855566 0.498652 0.139114
0.067188 -0.008763 0.011705 0.979468 -0.200249 -0.023279
-0.010308 -0.051382 -0.013332 0.465589 -0.884506 -0.029604
0.009191 0.057527 -0.004817 -0.424145 0.905070 -0.030809
-0.041832 -0.038923 -0.002918 -0.884199 -0.466229 0.028678
0.054347 0.016878 0.008466 0.876502 0.468556 0.110455
-0.042504 -0.022656 0.012322 -0.124164 -0.046073 0.991192
-0.028568 -0.034595 0.013222 -0.067156 -0.042712 0.996828
-0.062051 0.021871 0.003116 -0.472244 0.880375 -0.043878
0.024747 0.005315 0.015887 -0.010204 -0.012934 0.999864
-0.031386 -0.058396 0.002026 -0.684565 -0.723364 0.090085
0.066183 -0.005804 0.009632 0.874049 0.474327 0.105128
0.016452 0.035752 0.015537 -0.032989 0.010886 0.999396
0.024999 0.055254 0.015128 -0.023296 0.039337 0.998954
-0.042478 -0.037783 -0.004177 -0.894025 -0.447690 0.017125
-0.066258 0.008851 -0.008828 -0.885397 -0.464211 -0.024079
-0.002126 0.000103 0.015117 -0.032732 -0.002884 0.999460
-0.025554 0.027850 0.012909 -0.101690 0.040509 0.993991
0.027701 0.065657 -0.001453 -0.297860 0.954574 -0.008275
0.037536 -0.017893 -0.021436 0.061716 -0.139668 -0.988273
0.063133 -0.000666 0.012043 0.884936 0.448040 0.127079
-0.032276 0.004605 -0.020375 -0.038440 -0.031965 -0.998750
-0.015431 -0.054304 -0.002868 0.457913 -0.888873 -0.014823
0.034255 -0.008784 -0.022012 0.032010 -0.032249 -0.998967
-0.033258 0.036255 -0.017999 -0.452712 0.889588 -0.060704
0.029869 0.063264 0.005899 0.896284 0.436574 0.077966
-0.003514 -0.048072 0.004892 0.473053 -0.880656 0.025806
0.008480 -0.036010 0.013871 -0.010264 -0.058271 0.998248
0.009745 -0.040913 -0.002174 0.480410 -0.877043 -0.001326
-0.058537 -0.005793 0.003944 -0.881267 -0.462435 0.097588
-0.047621 0.029210 -0.001188 -0.463909 0.884320 -0.052595
0.034379 -0.005046 0.015731 -0.012220 -0.028587 0.999517
-0.067717 0.016712 -0.013454 -0.870861 0.491111 0.020260
-0.066529 0.017156 0.010843 -0.060136 0.114985 0.991545
-0.036307 -0.006697 -0.020177 0.066164 -0.024572 -0.997506
-0.039349 0.005335 0.012855 -0.063335 0.021739 0.997756
0.023837 -0.031147 -0.019960 0.276092 -0.411616 -0.868530
-0.012630 0.008982 0.014591 -0.053940 0.014578 0.998438
0.003971 0.013144 0.015376 -0.042333 0.002362 0.999101
0.026369 0.060605 0.014899 -0.014665 0.025087 0.999578
-0.004024 -0.003798 0.015018 -0.036266 -0.007434 0.999315
-0.032455 -0.016121 -0.019731 -0.036107 0.009795 -0.999300
0.010426 0.034077 0.015326 -0.051922 0.044952 0.997639
0.013710 -0.026955 -0.021439 0.049503 -0.120475 -0.991481
0.056060 -0.010195 0.015847 -0.024555 -0.009144 0.999657
-0.027771 -0.011147 -0.020446 -0.129747 -0.008831 -0.991508
-0.043332 -0.034646 0.005637 -0.861669 -0.499525 0.089454
-0.059663 0.019302 0.011090 -0.055017 0.041793 0.997610
-0.037729 -0.005137 0.013107 -0.073891 -0.002612 0.997263
0.042890 0.039174 0.003574 0.874082 0.484264 0.038334
-0.044352 -0.029674 -0.018318 -0.834710 -0.453539 -0.312347
-0.035765 -0.034718 -0.019941 0.144031 0.035105 -0.988950
0.039842 0.016063 0.015985 0.014443 0.011551 0.999829
0.039433 -0.024535 -0.000634 0.483763 -0.873765 -0.050077
-0.017774 0.045197 0.009714 -0.459084 0.888383 -0.004107
0.019909 -0.023267 0.014744 -0.015196 -0.058440 0.998175
0.054369 0.010673 0.015676 0.184811 0.123600 0.974971
-0.031249 -0.056036 -0.014890 -0.843974 -0.509726 -0.166994
-0.047658 -0.025216 -0.015889 -0.875038 -0.443950 -0.192919
-0.024642 -0.058832 0.003740 0.349349 -0.936992 -0.000855
0.050151 -0.017934 -0.014091 0.509870 -0.853013 -0.111362
0.037663 -0.024608 0.014999 0.177583 -0.403595 0.897539
0.061643 -0.011121 -0.011934 0.515754 -0.854197 -0.065921
-0.029403 -0.034636 -0.020378 -0.139400 0.043983 -0.989259
-0.008439 -0.025706 -0.022166 -0.013394 -0.022512 -0.999657
0.023455 0.064438 0.014626 -0.081854 0.080625 0.993378
0.037860 0.049117 -0.003677 0.869323 0.494205 0.006287
-0.036176 -0.047248 -0.015405 -0.846556 -0.473601 -0.242993
-0.006064 0.008528 0.014908 -0.049729 0.004490 0.998753
-0.048117 0.025225 -0.021346 0.051183 -0.004783 -0.998678
0.019066 -0.028792 0.014400 -0.009597 -0.059669 0.998172
0.030562 -0.029334 -0.014487 0.481694 -0.876230 -0.013836
0.033563 0.055728 -0.016008 0.866204 0.472518 -0.162532
0.064190 -0.011555 0.010057 0.552393 -0.831343 -0.061078
-0.004470 0.050251 -0.019678 -0.336214 0.574886 -0.745967
0.046350 -0.020582 -0.002175 0.491677 -0.870033 -0.036000
-0.035893 -0.016756 -0.019878 0.053380 -0.027454 -0.998197
0.024469 -0.029964 0.014422 -0.020687 -0.060387 0.997961
-0.014308 -0.053651 -0.005926 0.464279 -0.885338 -0.024932
-0.042291 0.032469 0.005598 -0.468600 0.881651 -0.055718
0.045973 0.025503 -0.018811 0.244168 0.127383 -0.961330
-0.057001 0.004629 -0.021834 0.040605 -0.008742 -0.999137
-0.058334 0.021863 0.011023 -0.103448 0.124068 0.986867
-0.041849 -0.033237 -0.020101 -0.665327 -0.317160 -0.675832
0.057478 0.010503 -0.012261 0.886016 0.453698 -0.095569
0.027793 0.065400 0.000321 -0.575808 0.804123 0.147752
-0.062351 0.002072 0.006071 -0.882145 -0.455447 0.119950
0.036549 -0.025598 -0.016269 0.472184 -0.864529 -0.172139
-0.047221 -0.004377 -0.021109 0.084335 -0.016019 -0.996309
-0.012741 -0.041216 0.013414 -0.011204 -0.052033 0.998583
-0.067029 0.018072 -0.019243 -0.532387 0.846480 -0.005960
0.030927 -0.008245 0.015571 -0.012226 -0.031261 0.999436
0.052832 0.019178 -0.012521 0.877675 0.472769 -0.078590
0.036118 -0.026345 -0.002208 0.490260 -0.871450 -0.014845
-0.067041 0.019138 0.003628 -0.576865 0.815501 -0.046747
0.013700 0.006853 0.015658 -0.027473 -0.008650 0.999585
0.029685 0.061407 0.012835 0.872289 0.458440 0.170131
0.047464 -0.018061 -0.019476 0.360205 -0.618470 -0.698389
0.058334 -0.010288 0.015938 -0.029201 -0.015742 0.999450
0.045266 0.031591 -0.017886 0.717881 0.372125 -0.588362
-0.017052 -0.054035 -0.019027 0.455944 -0.862733 -0.218648
0.020835 -0.020848 -0.021855 -0.002093 -0.094568 -0.995516
0.004973 0.035369 -0.021431 -0.028603 0.055025 -0.998075
0.032777 0.055596 0.012871 0.842580 0.446329 0.301412
0.026555 0.025252 0.015889 -0.003633 0.011246 0.999930
0.061750 0.004431 -0.007686 0.860015 0.435093 -0.266586
0.005522 -0.019762 0.014752 -0.014901 -0.048205 0.998726
0.026075 -0.015705 -0.022025 0.019858 -0.058485 -0.998091
0.028375 -0.030668 -0.001343 0.486562 -0.873538 -0.013765
0.021840 -0.018116 -0.022023 0.056442 -0.056161 -0.996825
-0.039271 -0.041575 0.008501 -0.873089 -0.472289 0.121068
-0.041769 -0.038947 -0.001109 -0.883266 -0.466582 0.046280
-0.014541 -0.053721 0.009580 0.479213 -0.877662 -0.007958
-0.031163 -0.058882 0.000172 -0.309796 -0.949392 0.051784
0.023837 -0.022236 -0.021622 0.043447 -0.084071 -0.995512
-0.003965 0.042106 0.014060 -0.075091 0.055869 0.995610
-0.008288 -0.050460 0.012163 0.444737 -0.793325 0.415745
-0.026931 -0.019417 -0.020496 -0.145633 -0.006381 -0.989318
-0.011691 -0.050411 -0.020991 0.256597 -0.449231 -0.855774
-0.033782 0.002182 0.013340 -0.078832 0.012372 0.996811
-0.038115 0.025637 0.011875 -0.087854 0.060405 0.994300
0.035579 0.053289 -0.005567 0.882824 0.467148 0.048930
-0.030438 0.034095 0.012131 -0.098485 0.030206 0.994680
-0.003225 -0.040887 0.013518 0.000144 -0.059206 0.998246
-0.047762 0.007759 0.012271 -0.065737 0.035324 0.997212
0.048029 0.013194 -0.019690 0.213538 0.112500 -0.970436
0.055334 -0.014179 0.015729 -0.003210 -0.064896 0.997887
0.010868 -0.040153 -0.016969 0.485568 -0.856716 -0.173958
-0.038023 0.033982 -0.014055 -0.448441 0.893808 0.002938
-0.044816 0.015069 0.012075 -0.047812 0.023004 0.998591
0.000214 0.053567 0.001263 -0.445154 0.891826 -0.080528
-0.003854 -0.022729 0.014483 -0.016154 -0.042924 0.998948
-0.053723 -0.010674 -0.020292 -0.826312 -0.436178 -0.356310
-0.041043 0.025873 -0.020945 0.046995 -0.009735 -0.998848
0.026439 -0.031737 0.002687 0.500963 -0.865467 0.001834
-0.022315 0.041987 -0.001768 -0.441196 0.895396 -0.060099
0.040066 0.039433 -0.018573 0.354006 0.217349 -0.909637
-0.042178 -0.036025 0.008926 -0.867585 -0.485642 0.106997
-0.006304 0.049417 -0.019778 -0.315299 0.657307 -0.684495
0.012665 0.011156 0.015656 -0.026790 -0.004858 0.999629
0.062510 -0.010791 -0.009729 0.498147 -0.864329 -0.069178
0.034292 -0.027462 0.002564 0.488438 -0.872368 -0.020073
-0.035899 -0.050973 -0.011100 -0.845421 -0.419851 -0.330134
0.051427 0.022749 0.006385 0.877819 0.471610 0.083773
0.061458 0.003715 -0.008534 0.822488 0.432224 -0.369724
0.036477 0.050001 -0.016787 0.863389 0.447840 -0.232375
0.022286 0.052653 -0.020563 0.075657 0.057302 -0.995486
-0.026154 -0.046511 -0.021139 -0.095235 0.015913 -0.995328
-0.008572 0.045146 0.013417 -0.092187 0.085510 0.992063
-0.058503 -0.004291 -0.014453 -0.863905 -0.481043 -0.149216
-0.044573 -0.026352 0.011802 -0.255988 -0.135347 0.957158
0.005056 0.055453 -0.012602 -0.439762 0.898114 -0.000817
-0.003096 -0.046212 0.013239 0.112623 -0.321905 0.940050
0.015845 0.019081 0.015730 -0.030310 -0.001778 0.999539
-0.000010 0.048983 -0.020168 -0.016578 0.073824 -0.997133
-0.011691 -0.050411 -0.020991 0.256597 -0.449231 -0.855774
-0.044977 0.005341 0.012503 -0.058318 0.021364 0.998069
-0.017135 0.032662 -0.021079 -0.018430 0.058155 -0.998137
0.007447 0.045309 -0.020832 -0.046017 0.083906 -0.995411
-0.027014 0.039353 -0.013857 -0.441425 0.897225 -0.011456
-0.011504 0.018157 0.014505 -0.073904 0.018249 0.997098
0.011096 0.060048 0.010716 -0.449121 0.889917 -0.079613
0.004726 0.018623 0.015329 -0.048414 0.005984 0.998809
0.020075 -0.025588 0.014614 -0.016002 -0.062017 0.997947
0.016893 0.050842 -0.020810 -0.018928 0.069920 -0.997373
-0.033456 -0.031957 -0.019694 -0.041703 0.043018 -0.998204
-0.036004 -0.016171 0.013214 -0.069430 -0.017775 0.997428
-0.027559 0.039470 0.011894 -0.223991 0.493203 0.840583
0.058674 0.008458 0.009847 0.873557 0.471119 0.122250
-0.025505 0.016690 -0.021202 -0.064034 -0.012015 -0.997875
0.021554 0.065241 0.014319 -0.363617 0.643052 0.673993
-0.005049 0.034097 -0.021222 -0.026092 0.055738 -0.998104
-0.044819 0.010271 0.012338 -0.054014 0.047101 0.997429
-0.059824 0.023117 0.004366 -0.469709 0.881831 -0.041807
0.045371 -0.018011 -0.020188 0.267159 -0.451418 -0.851380
-0.044353 0.023667 0.011617 -0.045081 0.067442 0.996704
-0.055954 -0.008564 -0.016337 -0.870983 -0.454210 -0.187302
0.066114 -0.003966 -0.004943 0.862259 0.504717 0.042077
-0.001416 0.036309 0.014624 -0.073899 0.058254 0.995563
0.066232 -0.008948 0.003493 0.827395 -0.547481 -0.125233
0.053667 0.016845 -0.015525 0.875202 0.464084 -0.136557
-0.032240 -0.054890 -0.013299 -0.832236 -0.512219 -0.212165
-0.008334 0.006183 0.014822 -0.043851 0.005621 0.999022
-0.004281 -0.047114 -0.020468 0.305960 -0.629529 -0.714200
-0.004081 0.051506 0.002242 -0.449136 0.889535 -0.083685
-0.040706 0.029955 0.011467 -0.043720 0.034618 0.998444
-0.008475 0.049889 0.008948 -0.448859 0.891259 -0.064672
0.025496 -0.017584 0.015111 -0.008362 -0.038351 0.999229
-0.030112 -0.058778 0.004074 -0.081167 -0.994575 0.065052
-0.067696 0.013333 -0.013770 -0.845497 -0.458333 -0.273981
0.018652 0.029058 -0.021858 0.015289 0.032174 -0.999365
-0.033058 0.036568 -0.004276 -0.443812 0.895132 -0.042064
0.021542 -0.023888 -0.021469 -0.010817 -0.138744 -0.990269
0.025251 -0.032544 0.000301 0.503813 -0.863804 0.003829
-0.065022 0.013714 -0.022078 -0.239136 -0.141037 -0.960688
0.031584 -0.029194 0.012105 0.469025 -0.880882 0.063742
0.026828 -0.030541 0.014458 0.176837 -0.353098 0.918722
-0.022395 -0.057824 0.008413 0.432582 -0.901579 0.005318
-0.058445 0.023948 0.006367 -0.478079 0.877324 -0.041758
-0.027245 0.038890 -0.020100 -0.374033 0.716704 -0.588587
-0.030496 -0.058647 0.001226 0.120691 -0.992690 -0.000228
-0.013956 0.000532 -0.021889 -0.067891 0.004598 -0.997682
0.015158 0.060362 -0.003520 -0.421381 0.905122 -0.056499
0.038779 -0.015982 -0.021487 0.049259 -0.067172 -0.996525
0.051068 -0.018217 0.003520 0.483750 -0.874281 -0.040227
0.035070 -0.024380 0.014924 0.008307 -0.070941 0.997446
-0.023230 -0.037284 0.013385 -0.040456 -0.040186 0.998373
0.020955 -0.017836 0.015038 -0.012512 -0.047820 0.998778
-0.023560 0.007865 0.013871 -0.069045 0.025005 0.997300
-0.028151 0.039762 0.006144 -0.450141 0.891526 -0.050536
-0.044266 0.010561 -0.021017 0.080962 -0.008385 -0.996682
-0.050278 -0.016098 -0.021019 -0.412179 -0.267123 -0.871065
-0.042431 -0.024929 -0.020433 0.154203 0.033993 -0.987454
-0.018037 -0.055618 0.007419 0.460155 -0.887765 0.011465
-0.033435 -0.016978 -0.019798 0.022422 -0.002525 -0.999745
0.002057 -0.038212 -0.020954 0.082428 -0.100686 -0.991498
-0.032541 -0.014757 -0.019732 -0.037753 -0.022466 -0.999035
-0.021950 -0.057657 0.006868 0.431316 -0.902172 0.007202
0.041710 0.033351 0.015360 0.070874 0.042277 0.996589
-0.035922 0.001131 0.013180 -0.051248 0.023547 0.998408
-0.009085 0.049670 0.012175 -0.402091 0.815405 0.416459
0.044030 -0.021198 -0.015978 0.520358 -0.836357 -0.172436
0.015290 0.061372 0.005196 -0.428100 0.895787 -0.119568
-0.056920 0.000788 -0.021815 0.009188 -0.028315 -0.999557
-0.052732 0.016907 0.011616 -0.067395 0.064803 0.995620
-0.006064 0.008528 0.014908 -0.049729 0.004490 0.998753
0.005452 0.057223 0.011896 -0.488633 0.865141 0.112998
-0.027526 -0.058981 -0.003432 -0.263957 -0.964302 -0.021184
-0.031953 0.037641 0.011376 -0.361001 0.711199 0.603221
0.007373 -0.042355 0.012123 0.432224 -0.873926 0.222340
0.011054 0.058942 0.001976 -0.427807 0.898365 -0.099602
-0.041200 0.032366 -0.007506 -0.462551 0.886502 -0.012688
-0.066336 0.018977 -0.008252 -0.584175 0.810042 -0.050710
-0.003264 -0.009474 -0.022319 -0.002370 -0.000596 -0.999997
-0.050935 -0.007398 0.011966 -0.108597 -0.037292 0.993386
0.025335 0.058626 0.014916 -0.029733 0.039131 0.998792
0.007656 0.019471 -0.022061 -0.010305 0.023718 -0.999666
0.029637 0.042474 -0.020350 0.151431 0.077783 -0.985403
0.024269 -0.011752 0.015345 -0.019158 -0.045565 0.998778
-0.067710 0.012592 0.007373 -0.877648 -0.464975 0.116330
-0.023179 -0.058238 0.002120 0.410966 -0.911371 -0.022571
-0.033838 -0.049302 -0.019010 -0.847820 -0.449969 -0.280586
0.007876 0.053286 -0.020047 -0.062163 0.086526 -0.994308
-0.046845 -0.029069 -0.002174 -0.894904 -0.446079 0.012636
0.060871 -0.011846 -0.008188 0.513883 -0.855615 -0.062024
-0.040654 -0.004449 0.012893 -0.075046 0.004912 0.997168
0.012420 -0.018670 -0.022171 0.025238 -0.042450 -0.998780
-0.032324 0.030441 -0.020887 -0.015646 0.006705 -0.999855
0.046533 0.003049 0.015983 0.011880 -0.006434 0.999909
0.003954 0.019338 -0.022015 -0.019613 0.029004 -0.999387
0.043478 -0.021823 -0.014837 0.490970 -0.860499 -0.135982
-0.059494 0.005521 -0.021957 -0.002221 -0.025073 -0.999683
-0.069561 0.015517 0.000529 -0.983717 0.134052 -0.119713
0.045486 -0.020755 -0.011189 0.508446 -0.860442 -0.033509
