-0.021309 -0.018430 0.035178 -0.999572 0.025979 0.013458
0.016897 -0.016308 0.057180 0.996429 -0.022026 0.081517
0.022713 0.018092 -0.091443 0.227441 0.013696 -0.973696
-0.008628 -0.040377 0.082515 -0.005049 0.002497 0.999984
0.000736 0.043865 0.037487 0.050150 0.998600 -0.016837
0.024860 0.000501 -0.046861 0.998620 -0.027353 0.044827
-0.015115 -0.045852 0.005604 -0.059633 -0.998094 0.015864
0.020119 -0.044710 -0.054271 0.964368 -0.260166 0.048040
-0.014857 -0.017421 0.082931 -0.058169 0.003570 0.998300
-0.022204 0.000033 0.076171 -0.995120 0.044552 -0.088044
0.003800 0.043272 0.001864 0.047222 0.998884 -0.000170
0.023093 -0.004892 -0.013818 0.998382 -0.029324 0.048713
0.023526 0.003101 -0.017710 0.997797 -0.013004 0.065054
0.020243 -0.001842 0.025955 0.996035 -0.021977 0.086210
0.004052 0.041393 0.082460 -0.114274 0.063711 0.991404
-0.003218 -0.003877 -0.092319 -0.000204 0.003607 -0.999993
-0.020861 -0.019517 -0.028920 -0.999325 -0.024491 -0.027380
-0.010764 -0.023555 -0.092347 -0.046287 -0.004366 -0.998919
-0.003237 0.044262 0.051451 0.066539 0.997468 -0.025095
-0.015685 -0.009419 0.082819 -0.069039 0.010143 0.997562
0.022509 0.041293 -0.055911 0.533739 0.845499 0.015957
0.009800 -0.047880 -0.045846 0.028909 -0.999354 0.021337
0.018754 -0.023053 0.031921 0.993159 -0.064777 0.097159
-0.001261 -0.047621 -0.038649 -0.054648 -0.998368 0.016589
0.001209 0.043713 0.031479 0.045200 0.998781 -0.019852
0.022482 0.002107 -0.002432 0.997452 -0.011423 0.070421
0.023268 0.001248 -0.014328 0.998152 -0.020937 0.057040
0.018704 0.019411 -0.091805 0.055112 0.016154 -0.998350
-0.022391 -0.030040 0.081999 -0.517723 0.014818 0.855420
-0.010060 0.020162 0.082485 -0.033627 0.045341 0.998405
-0.017308 -0.003850 -0.088185 -0.967216 0.015847 -0.253461
0.016270 -0.044595 0.034695 0.917937 -0.392502 0.057735
0.016967 0.021240 0.063193 0.995651 -0.031553 0.087654
-0.009426 -0.046198 0.007782 -0.057657 -0.998100 0.021725
-0.019701 0.042187 0.081133 -0.492778 0.127530 0.860759
-0.013521 -0.032593 0.082726 0.022586 -0.028040 0.999352
-0.015566 0.037071 -0.052446 -0.985992 0.157858 -0.053857
0.017760 0.029140 0.057158 0.994711 -0.049453 0.090027
0.019360 0.035286 0.037410 0.997543 0.008446 0.069542
0.023728 0.005534 -0.020974 0.998515 -0.006528 0.054080
0.012739 0.042969 0.016748 0.056432 0.998150 -0.022622
-0.021308 -0.019808 0.008811 -0.999975 0.001604 -0.006848
-0.019114 0.012595 -0.056206 -0.995543 0.090225 -0.027450
0.010822 -0.047453 -0.026684 0.031781 -0.999106 0.027874
-0.020378 -0.008195 -0.049578 -0.999477 0.011704 -0.030160
0.023938 -0.018283 -0.052051 0.994921 -0.097532 0.024887
-0.015052 0.036174 -0.065542 -0.978137 0.202138 -0.048874
-0.020908 -0.029148 -0.010413 -0.998587 -0.047466 -0.023904
0.004266 -0.045978 0.071176 0.001733 -0.999959 -0.008938
0.019319 -0.047002 -0.052216 0.719362 -0.694133 0.026418
-0.019979 0.020521 0.024743 -0.997824 0.062990 -0.019468
0.023857 -0.011166 -0.034592 0.997045 -0.061934 0.045441
-0.020897 -0.031049 -0.005636 -0.998647 -0.050601 -0.012018
0.023111 0.009595 -0.010931 0.997687 0.002074 0.067944
0.018215 -0.013961 0.041789 0.994561 -0.033379 0.098662
-0.006761 0.040733 -0.091113 -0.030539 0.200998 -0.979115
-0.014021 0.045203 0.071728 0.027575 0.999600 -0.006316
0.003205 -0.045724 0.081192 -0.059597 -0.859167 0.508213
0.019634 -0.031640 0.005835 0.989813 -0.131570 0.054410
0.004015 0.023797 0.083098 -0.067228 0.025973 0.997400
0.023787 -0.018650 -0.047647 0.995598 -0.091665 0.019534
-0.019087 0.028417 0.006725 -0.995099 0.096790 -0.020238
0.004392 0.043214 -0.001090 0.047754 0.998856 -0.002302
0.014115 -0.026720 0.083423 0.271117 -0.067641 0.960167
-0.004792 0.043284 -0.022525 0.016038 0.999708 0.018083
-0.018161 -0.034839 -0.084795 -0.996521 -0.081577 -0.017072
0.019057 -0.011507 0.034294 0.992601 -0.028992 0.117911
0.019486 0.041927 0.031889 0.902073 0.430906 0.024177
-0.020364 0.003804 -0.028659 -0.998346 0.055122 -0.016325
0.012268 -0.048276 -0.077547 0.018096 -0.999376 0.030346
0.001892 -0.003887 0.083461 -0.039292 0.012462 0.999150
-0.018833 -0.039246 -0.050742 -0.994085 -0.103343 -0.033403
-0.015879 -0.046291 -0.025174 -0.064577 -0.997872 0.009048
-0.020602 -0.037558 -0.002959 -0.998099 -0.055340 -0.027134
-0.013024 -0.021144 -0.092240 -0.157431 -0.004276 -0.987521
0.015285 -0.046706 0.007542 0.235204 -0.969578 0.067801
0.021588 0.041468 -0.072429 0.225036 0.973720 0.035046
-0.018006 0.027834 -0.031377 -0.988728 0.143806 -0.041670
-0.008170 0.042610 -0.081367 -0.068169 0.995544 0.065152
0.004937 0.034698 0.082875 -0.090001 0.031685 0.995438
0.013125 0.042353 -0.089036 0.081537 0.901848 -0.424291
-0.019968 -0.026344 -0.048242 -0.997727 -0.060752 -0.029160
0.025241 0.011144 -0.080384 0.995599 -0.050792 -0.078759
-0.020200 -0.032171 -0.028724 -0.996701 -0.073151 -0.035162
0.016560 -0.021267 -0.091901 0.102661 -0.031869 -0.994206
0.022898 0.002862 -0.007966 0.997628 -0.012397 0.067714
-0.021381 -0.021275 0.029766 -0.999861 0.016063 0.004527
0.017423 0.034998 0.065227 0.994857 -0.059201 0.082187
0.004273 0.043232 -0.005537 0.044346 0.999016 -0.001121
0.016337 -0.034705 0.051484 0.994401 -0.079653 0.069441
0.015617 0.000922 0.082907 0.459390 0.037415 0.887446
0.007828 0.040035 0.082875 -0.037386 0.030302 0.998841
-0.017606 0.019610 -0.082326 -0.994602 0.096184 -0.038923
-0.020603 0.019060 0.067627 -0.992647 0.029103 -0.117492
-0.012085 -0.001110 -0.092080 -0.146150 0.010470 -0.989207
-0.023257 -0.034156 0.076799 -0.996007 0.026073 -0.085383
0.017080 0.043087 0.034690 0.145693 0.989325 -0.003105
0.023642 -0.024507 -0.067703 0.994933 -0.099781 0.012373
0.016981 0.043403 0.074875 0.703146 0.710348 -0.031494
0.024305 -0.014600 -0.055852 0.996935 -0.076914 0.014321
0.018486 0.025471 0.047950 0.994266 -0.018469 0.105330
0.022852 -0.012738 -0.017053 0.995573 -0.062575 0.070133
0.020871 -0.030657 -0.090883 0.451917 -0.062960 -0.889836
-0.018512 0.006565 -0.079586 -0.995980 0.038689 -0.080792
0.005963 0.043591 0.040698 0.053718 0.998306 0.022365
-0.013331 0.045250 0.067646 -0.000023 0.999818 0.019073
0.024103 0.013550 -0.029273 0.998745 0.020854 0.045535
0.022616 -0.009622 -0.010107 0.996250 -0.055462 0.066404
0.022795 0.041127 -0.086342 0.360335 0.932517 0.023868
0.009543 -0.048388 -0.083264 0.003889 -0.999935 0.010721
0.022803 -0.020116 -0.087290 0.986564 -0.040396 -0.158304
0.017403 -0.047050 -0.025813 0.492209 -0.870104 0.025476
-0.020340 -0.000083 0.048036 -0.998888 0.046491 0.007796
0.015809 0.042544 0.004714 0.036331 0.999337 -0.002206
-0.016627 0.008652 -0.090162 -0.843797 0.027366 -0.535964
-0.020678 -0.033468 0.082532 -0.195228 0.031504 0.980252
0.002956 0.008436 -0.092221 -0.008813 0.007592 -0.999932
0.016089 -0.047628 -0.042066 0.109383 -0.993999 -0.001451
-0.019891 0.009188 -0.035574 -0.997248 0.072019 -0.017600
0.015986 0.019508 0.081946 0.377045 0.031302 0.925666
-0.001927 -0.045939 0.072059 -0.024569 -0.999669 0.007597
0.000736 0.043865 0.037487 0.050150 0.998600 -0.016837
-0.020659 -0.012904 -0.039482 -0.999679 -0.004046 -0.025029
0.022970 -0.023975 -0.040087 0.992179 -0.118623 0.038841
0.006063 -0.046939 0.000361 -0.010721 -0.999693 0.022322
0.020224 -0.003826 0.025562 0.996222 -0.027377 0.082410
-0.022002 -0.008036 0.069590 -0.995441 0.063228 -0.071414
-0.021105 -0.004624 0.007150 -0.999458 0.032857 0.002037
0.017883 -0.042437 0.006459 0.983622 -0.175025 0.043060
0.017527 0.015716 0.054505 0.993771 -0.024918 0.108620
0.025162 0.018487 -0.057627 0.998296 0.034934 0.046744
0.023246 0.019603 -0.016701 0.997486 0.043438 0.055996
-0.018526 -0.045419 0.027189 -0.090427 -0.995850 0.010296
0.019701 0.011136 0.032687 0.995030 -0.033739 0.093684
-0.015774 0.029183 -0.086379 -0.966913 0.175740 -0.184920
0.018018 0.024113 0.080864 0.938518 -0.019225 0.344695
-0.018503 -0.045385 0.029127 -0.092565 -0.995682 0.007075
0.022288 -0.036261 -0.070231 0.988614 -0.145740 0.037444
-0.022497 -0.035232 0.082110 -0.496784 0.040159 0.866945
0.020313 0.010524 0.026698 0.997249 -0.002870 0.074070
0.013828 -0.007279 -0.092232 0.032231 -0.008780 -0.999442
0.021014 0.008680 0.017928 0.996187 -0.004467 0.087125
-0.018193 0.005381 -0.083178 -0.990254 0.024876 -0.137034
0.018499 0.014743 0.045055 0.992282 -0.012933 0.123323
-0.020068 -0.025011 0.082556 -0.204299 0.006858 0.978885
0.020460 0.022630 0.024649 0.997910 0.014211 0.063040
0.007968 0.014973 0.083238 0.072007 0.016209 0.997272
-0.019536 -0.001946 -0.068031 -0.998285 0.027165 -0.051848
0.001724 0.043647 0.028859 0.044501 0.998896 -0.015027
-0.016992 -0.046353 -0.072380 -0.759108 -0.650590 -0.022074
-0.014995 0.032418 -0.086458 -0.977358 0.206754 -0.044982
0.003162 0.018046 -0.092093 -0.017452 0.020952 -0.999628
0.020584 0.041915 -0.001743 0.708983 0.705210 0.004612
0.018699 -0.015202 0.036847 0.994300 -0.044553 0.096866
-0.019844 0.020198 0.021999 -0.998149 0.054920 -0.026126
-0.014804 -0.045257 0.075614 -0.068778 -0.997318 0.025024
0.022658 -0.034828 -0.078505 0.993651 -0.112460 -0.003277
-0.021512 -0.016757 0.060301 -0.997133 0.035529 -0.066816
-0.015049 0.035843 -0.067095 -0.975719 0.214258 -0.045464
-0.017838 -0.040811 -0.072440 -0.991786 -0.124496 -0.029361
-0.012565 0.002287 -0.091810 -0.134393 0.033858 -0.990350
0.024173 0.005994 -0.029355 0.998805 -0.004996 0.048621
-0.014261 0.021677 -0.091308 -0.234316 0.042414 -0.971235
-0.013858 -0.045992 0.002204 -0.058084 -0.998205 0.014623
0.019652 0.003067 0.031573 0.994973 -0.026302 0.096625
0.019497 0.041629 -0.063287 0.093963 0.995454 0.015578
-0.017680 -0.039844 -0.085139 -0.992895 -0.118135 -0.014272
-0.011024 0.006382 -0.092116 -0.119120 0.002422 -0.992877
0.024848 0.019255 -0.089292 0.968232 -0.054306 -0.244086
0.012959 -0.039018 0.082169 0.369297 -0.187704 0.910157
0.024626 -0.007892 -0.048861 0.997807 -0.056759 0.034050
0.021288 0.013705 -0.091636 0.139267 -0.000689 -0.990255
-0.017287 -0.007031 -0.088722 -0.963498 0.037879 -0.265022
-0.006243 0.035530 -0.091323 -0.009121 0.048941 -0.998760
-0.020460 0.006122 -0.014956 -0.998272 0.056722 -0.015362
-0.017603 -0.034560 0.082729 -0.016209 -0.002436 0.999866
0.023673 0.040890 -0.082462 0.587987 0.808854 0.005215
0.004098 -0.047511 -0.028179 -0.017291 -0.999444 0.028492
0.003606 -0.045964 0.056274 -0.003117 -0.999892 -0.014373
0.024148 0.038729 -0.070276 0.987308 0.155131 0.034009
-0.019075 0.034360 0.029772 -0.996729 0.078601 -0.018778
0.024596 0.032178 -0.091074 0.569375 -0.029751 -0.821539
0.014598 0.038723 -0.091571 0.037725 0.094321 -0.994827
-0.008475 0.042631 -0.038319 0.033213 0.998478 -0.044035
-0.018748 0.019689 -0.042207 -0.992496 0.118934 -0.028406
-0.009895 -0.046241 0.003661 -0.065196 -0.997733 0.016690
0.018764 0.007501 0.041483 0.993786 -0.017293 0.109957
0.018973 0.015331 0.040976 0.993011 -0.017382 0.116733
0.018788 0.042215 0.046456 0.897613 0.435956 0.065066
-0.017876 -0.045337 0.064210 -0.101742 -0.994668 0.016839
-0.013653 -0.045559 0.048381 -0.030452 -0.999514 -0.006602
0.017376 0.042481 0.001834 0.012148 0.999875 -0.010133
-0.011631 -0.025819 0.082908 -0.004490 -0.026891 0.999628
0.016822 -0.025049 0.053947 0.995784 -0.055033 0.073391
0.002351 -0.003362 -0.092317 0.001684 0.000877 -0.999998
0.022900 0.036893 -0.037417 0.995815 0.080862 0.042597
0.023794 -0.010421 -0.083346 0.991370 -0.033449 -0.126757
0.014044 0.043856 0.075558 0.102837 0.994398 -0.024422
0.017508 0.042382 -0.013284 0.031665 0.999467 -0.007913
0.023212 0.041200 -0.080040 0.508652 0.860964 0.003813
-0.021309 -0.015979 0.002886 -0.999965 0.004507 -0.006991
-0.011403 -0.046460 -0.013687 -0.078394 -0.996811 0.014885
-0.014103 0.015231 -0.091478 -0.223532 0.079370 -0.971460
-0.010333 0.044450 0.044436 0.050736 0.996648 -0.064177
0.004973 0.041838 -0.046811 0.041522 0.999043 0.013714
0.024491 -0.000779 -0.081012 0.993312 -0.051977 -0.103098
0.021184 -0.040981 -0.062015 0.982796 -0.179150 0.044918
-0.019523 0.044808 0.078615 -0.543943 0.838247 -0.038322
-0.021197 0.018048 0.081122 -0.639903 -0.006045 0.768432
0.021479 0.022937 0.009129 0.997401 0.032315 0.064391
0.019634 -0.031640 0.005835 0.989813 -0.131570 0.054410
0.017035 0.040735 -0.091101 0.021520 0.554388 -0.831980
0.018958 0.017608 0.041383 0.993500 -0.017566 0.112473
-0.018748 0.041404 0.050971 -0.999790 0.011192 0.017178
-0.015055 0.044557 0.037091 -0.029695 0.998776 -0.039553
0.017078 0.041658 -0.039741 0.023316 0.998740 -0.044434
-0.020812 -0.028464 -0.015999 -0.998560 -0.049381 -0.020953
0.007706 0.043441 0.033976 0.049318 0.998363 -0.028954
0.019993 0.011364 0.030568 0.993577 -0.007880 0.112883
-0.020029 0.012107 0.039642 -0.998844 0.038603 0.028649
-0.000696 0.043431 -0.085011 -0.006885 0.992432 0.122605
-0.002324 0.037853 0.082006 -0.035970 0.036608 0.998682
0.023387 -0.012292 -0.026115 0.996538 -0.067265 0.048853
0.025480 0.029973 -0.089199 0.984837 -0.062377 -0.161877
0.014199 -0.045970 0.052164 0.461755 -0.885573 0.050431
0.015016 -0.041746 0.066215 0.996639 -0.071131 0.040622
-0.017828 -0.008490 -0.086713 -0.978031 0.016658 -0.207794
-0.021988 -0.041176 0.055377 -0.997471 0.051776 -0.048699
0.019941 0.042306 -0.000070 0.511600 0.859097 0.014756
-0.022432 -0.017187 0.070918 -0.996986 0.039282 -0.066908
0.010406 0.042245 -0.062326 0.053308 0.997824 0.038806
0.023286 -0.009145 -0.020630 0.997275 -0.054959 0.049224
-0.018770 0.022834 -0.028057 -0.992540 0.118146 -0.030090
0.001359 0.043142 -0.089665 0.087699 0.772214 -0.629281
-0.019636 0.008807 -0.048081 -0.997398 0.069495 -0.019173
-0.018894 0.036794 0.030606 -0.996412 0.079951 -0.027771
-0.018431 -0.021827 -0.085161 -0.990553 0.005997 -0.136998
0.023360 0.022729 -0.021411 0.996959 0.056701 0.053458
0.022943 -0.013960 -0.088082 0.985605 -0.046298 -0.162599
0.008931 -0.010943 0.083539 0.033889 0.007648 0.999396
0.017522 0.001988 0.052687 0.995145 -0.021707 0.095996
0.024781 0.001579 -0.044067 0.999011 -0.018420 0.040468
0.009543 -0.014031 -0.092265 0.019366 -0.009577 -0.999767
0.024597 0.006372 -0.038762 0.998967 -0.004897 0.045183
0.000809 -0.045986 0.073690 -0.018178 -0.999832 -0.002283
-0.014363 0.042901 -0.021070 -0.449332 0.889894 -0.078670
-0.019198 0.016480 -0.037996 -0.994666 0.100501 -0.023230
-0.020400 -0.012532 -0.049105 -0.999589 -0.002899 -0.028532
-0.018177 0.043639 0.039679 -0.717731 0.695980 -0.021754
-0.009029 -0.043165 -0.091821 0.058940 -0.011369 -0.998197
-0.018416 0.038355 0.018452 -0.992175 0.118221 0.040166
0.020118 0.033760 -0.091610 0.023569 0.023558 -0.999445
0.020119 -0.044710 -0.054271 0.964368 -0.260166 0.048040
0.019708 -0.039718 -0.022385 0.979441 -0.195593 0.049384
-0.006367 -0.046500 0.000638 -0.054516 -0.998405 0.014701
0.021590 -0.027222 -0.019151 0.989112 -0.135940 0.056369
-0.019547 -0.043679 -0.020854 -0.987640 -0.149609 -0.046727
0.025240 0.009104 -0.055306 0.999875 0.000409 0.015791
-0.018585 -0.045730 -0.002224 -0.265070 -0.964143 0.012884
-0.000268 -0.046200 0.027631 -0.028314 -0.999569 0.007704
-0.017437 0.008989 -0.087190 -0.979331 0.012697 -0.201865
-0.019259 0.024672 0.055407 -0.998958 0.045098 -0.006978
-0.020633 -0.008719 -0.039445 -0.999646 0.015913 -0.021327
0.020797 -0.004260 0.017962 0.997463 -0.020965 0.068037
-0.002729 0.042221 -0.042319 0.043000 0.998595 -0.030967
0.024417 0.013660 -0.036307 0.998734 0.022640 0.044915
0.000126 -0.002134 0.083363 -0.047705 0.010251 0.998809
-0.020244 0.012789 0.000883 -0.997838 0.064809 -0.010914
0.020700 0.038179 0.010596 0.998170 0.036376 0.048313
-0.020334 -0.009554 -0.051036 -0.999390 0.005123 -0.034540
-0.005879 0.044068 -0.087926 0.066063 0.991805 0.109355
0.000309 0.043674 0.027047 0.041899 0.999061 -0.011017
-0.016542 0.040362 -0.019268 -0.967030 0.252109 -0.035989
0.018183 0.009009 -0.091956 0.068985 0.012106 -0.997544
-0.002739 -0.045249 0.081196 -0.040080 -0.862283 0.504839
-0.004880 0.044635 0.059642 0.078236 0.996093 -0.040961
0.016915 -0.009931 0.058446 0.996605 -0.016245 0.080712
0.024853 0.000646 -0.077895 0.996085 -0.051381 -0.071932
0.017005 0.040085 0.082060 0.457569 -0.071912 0.886262
0.019349 0.041754 -0.072848 0.121613 0.992559 0.006070
0.017202 0.012983 0.058048 0.996448 -0.016408 0.082594
0.006994 0.043231 0.012717 0.055819 0.998416 -0.007083
0.024491 -0.000779 -0.081012 0.993312 -0.051977 -0.103098
-0.020635 -0.000224 -0.024661 -0.998771 0.047252 -0.014927
-0.021188 -0.011518 0.030756 -0.999475 0.030619 0.010562
-0.018241 0.038240 0.013835 -0.991633 0.123720 -0.036831
0.004802 0.015437 0.083287 -0.010462 0.018238 0.999779
0.005039 0.043441 -0.085622 0.051121 0.998177 0.032070
-0.008438 -0.045969 0.021995 -0.047952 -0.998500 0.026411
-0.021953 -0.035402 0.057757 -0.997487 0.025418 -0.066129
-0.020145 0.006229 0.055507 -0.998013 0.062933 -0.002985
0.017732 0.039529 0.065028 0.992953 -0.093427 0.072906
0.004716 -0.046897 0.001581 -0.014452 -0.999659 0.021753
0.023070 -0.009288 -0.016967 0.996181 -0.054837 0.067945
-0.018569 -0.018917 -0.083499 -0.990924 0.021760 -0.132651
-0.019384 0.015381 -0.034877 -0.995172 0.095284 -0.023549
-0.020714 -0.001638 -0.022822 -0.999033 0.042549 -0.011102
-0.011464 0.044574 0.045650 0.054011 0.997310 -0.049554
-0.016586 0.028405 -0.068187 -0.982533 0.183539 -0.030689
-0.018193 -0.036043 -0.080072 -0.994867 -0.095751 -0.032743
-0.015183 0.043275 -0.003456 -0.400752 0.913776 -0.066411
-0.020104 0.005303 0.050752 -0.999153 0.033528 -0.023864
-0.010685 0.042521 0.081787 0.011462 0.110283 0.993834
0.005763 -0.048032 -0.052778 -0.002186 -0.999878 0.015467
-0.004682 0.044147 0.039247 0.042208 0.999108 -0.001097
-0.017617 0.031341 0.081851 -0.139544 0.008474 0.990180
0.015369 0.042215 -0.030179 0.052135 0.998082 -0.033367
-0.007980 -0.045642 0.076305 -0.049913 -0.998497 0.022652
0.020673 0.000517 0.021135 0.996731 -0.012078 0.079887
0.021875 0.033544 -0.007890 0.995955 0.076457 0.047199
-0.012147 0.030306 -0.091192 -0.116296 0.025383 -0.992890
0.021548 0.041407 -0.083879 0.224246 0.974415 -0.015151
-0.019363 -0.002461 -0.071697 -0.998191 0.021637 -0.056098
0.006749 0.043364 -0.086894 0.077904 0.995769 -0.048741
-0.003270 0.042445 -0.038072 0.036146 0.997544 -0.059997
0.016913 0.043136 0.038773 0.142171 0.989817 -0.007060
-0.020289 0.003204 0.042727 -0.998783 0.042529 0.024996
-0.020447 -0.002045 0.045721 -0.998768 0.047081 0.015709
-0.001667 0.001456 0.083207 -0.045607 0.013739 0.998865
-0.016050 -0.044556 0.080767 -0.076402 -0.956882 0.280248
-0.020696 -0.014704 -0.037722 -0.999537 -0.012336 -0.027809
0.025456 0.008354 -0.069372 0.999576 -0.029041 -0.001911
0.022923 -0.031463 -0.081113 0.996029 -0.079762 -0.039562
0.003426 0.043086 -0.077421 0.010013 0.999325 0.035338
-0.012755 0.026123 -0.091360 -0.139002 0.029178 -0.989862
0.013309 -0.045833 0.067737 0.409940 -0.911085 0.043274
0.017296 0.042025 -0.075645 0.122693 0.992419 0.007113
-0.006000 0.043911 0.019240 0.028435 0.999439 0.017691
-0.021302 -0.030890 0.012421 -0.999082 -0.032255 -0.028194
0.000309 0.043674 0.027047 0.041899 0.999061 -0.011017
0.023617 0.027317 -0.034039 0.996121 0.077414 0.041844
-0.001402 -0.046750 0.000289 -0.042518 -0.998893 0.020111
0.019335 0.040766 0.038370 0.992065 0.124171 0.019721
-0.019209 -0.042522 -0.031311 -0.995295 -0.088176 -0.040148
0.019738 0.022497 0.034074 0.994115 -0.000410 0.108325
-0.011532 0.043532 -0.009030 0.017585 0.999673 -0.018564
-0.023107 -0.023690 0.078274 -0.998315 0.012414 -0.056689
-0.019865 0.043724 0.074192 -0.908314 0.410486 -0.080421
-0.010579 0.014490 0.082681 -0.037293 0.027147 0.998936
0.018023 0.034702 0.056850 0.996483 -0.042589 0.072159
-0.018238 0.017847 0.082172 -0.199561 0.040635 0.979043
-0.008245 0.042422 -0.051029 0.027997 0.999547 0.011012
0.008249 -0.045937 0.069645 0.018041 -0.999837 0.000470
-0.018499 0.040614 0.028148 -0.994877 0.089540 -0.046920
0.023817 -0.015932 -0.080690 0.993621 -0.049829 -0.101161
-0.018699 0.040397 0.052962 -0.999782 0.002667 0.020690
0.021696 0.041310 -0.089621 0.132758 0.933919 -0.331921
-0.013116 0.023907 -0.091383 -0.177202 0.012890 -0.984090
-0.009485 0.043571 -0.005821 0.011125 0.999881 -0.010698
-0.021197 0.018048 0.081122 -0.639903 -0.006045 0.768432
0.017106 -0.043458 0.019697 0.985297 -0.163769 0.048671
-0.021800 -0.039439 0.049045 -0.999440 0.029648 -0.015483
0.018177 0.035953 0.055225 0.997223 -0.042262 0.061314
-0.011871 0.042623 -0.051160 -0.182182 0.983102 -0.017887
0.010575 0.043083 0.021853 0.048470 0.998805 -0.006304
0.007723 -0.034281 -0.091691 0.037327 -0.047775 -0.998160
-0.020191 -0.018980 -0.051597 -0.998724 -0.031240 -0.039669
-0.015186 0.043498 0.003237 -0.324840 0.945300 -0.029791
0.016898 0.043576 0.071211 0.618809 0.783386 0.058152
0.021588 0.041468 -0.072429 0.225036 0.973720 0.035046
0.016659 0.030500 0.072247 0.999821 -0.017877 0.006178
-0.012380 0.020378 -0.091504 -0.116508 0.036353 -0.992524
0.016701 0.043207 0.056602 0.221965 0.975053 0.001858
-0.010760 0.043191 -0.025314 0.014238 0.999641 -0.022707
-0.012817 0.042039 -0.059691 -0.436695 0.898865 -0.036595
-0.017090 -0.043957 -0.085544 -0.986748 -0.157317 -0.039743
0.021257 -0.022561 -0.003097 0.992036 -0.107216 0.066101
-0.019453 -0.015965 -0.072871 -0.998755 -0.007830 -0.049268
0.014461 -0.006682 0.083217 0.170188 0.025982 0.985069
0.017798 0.018982 0.053446 0.995242 -0.027565 0.093452
-0.020685 0.002171 0.060228 -0.992728 0.057581 -0.105713
0.025164 0.012012 -0.053109 0.999249 0.020477 0.032901
-0.002920 0.042896 -0.076173 -0.047304 0.998675 0.020257
0.013758 0.031344 -0.091751 0.009888 0.037851 -0.999234
0.017746 -0.039054 0.020776 0.985565 -0.156551 0.064442
-0.019878 0.010469 -0.031600 -0.996941 0.075066 -0.021762
0.021115 0.025529 0.013577 0.997652 0.033411 0.059783
-0.019457 0.020676 0.057385 -0.997089 0.060474 -0.046429
0.023994 -0.018165 -0.054599 0.995314 -0.094819 0.018977
-0.017621 -0.046250 -0.023771 -0.384219 -0.922989 -0.021616
-0.021422 -0.023772 0.013025 -0.999961 -0.006909 -0.005472
0.014712 0.032713 0.082245 0.173339 -0.029160 0.984430
-0.005054 0.030683 -0.091544 -0.002455 0.042380 -0.999099
0.004485 -0.048126 -0.059864 -0.014060 -0.999898 0.002580
0.019286 0.042320 -0.019731 0.147133 0.988382 -0.038128
0.022132 -0.017492 -0.009893 0.995658 -0.072052 0.058931
0.016760 0.042945 0.027561 0.061302 0.997380 -0.038407
0.019381 0.014077 0.037964 0.993648 -0.020583 0.110635
0.018462 -0.006234 0.041556 0.994241 -0.015006 0.106116
-0.021152 -0.000982 0.017939 -0.999291 0.030633 0.021897
-0.022195 -0.004550 0.081278 -0.749649 -0.002393 0.661831
-0.021441 -0.044906 0.060913 -0.536464 -0.843589 -0.023754
-0.020534 0.009724 0.024403 -0.998865 0.041998 -0.022478
-0.011114 -0.046353 -0.006452 -0.073013 -0.997088 0.022001
0.017807 0.002263 0.049665 0.995210 -0.009194 0.097326
0.000200 -0.046080 0.037919 -0.022957 -0.999680 0.010605
-0.008882 -0.047545 -0.073997 -0.078987 -0.996737 0.016645
0.025233 0.030092 -0.076506 0.996780 0.072248 0.034793
-0.015090 -0.046241 -0.017991 -0.065822 -0.997670 0.017956
0.016720 0.031909 0.071423 0.997914 -0.047886 0.043308
0.025537 0.011530 -0.069757 0.999838 -0.017289 0.004953
0.003852 -0.045516 0.081358 0.055966 -0.847957 0.527103
-0.019492 -0.041838 -0.025815 -0.995201 -0.084429 -0.049458
0.020568 -0.001916 0.022094 0.996320 -0.023636 0.082387
0.022593 -0.018914 -0.020611 0.994252 -0.093818 0.051581
-0.008848 0.045103 0.062390 0.068482 0.997293 -0.026766
-0.009817 0.035105 -0.091350 -0.070892 0.073445 -0.994776
-0.017967 -0.045292 0.066642 -0.096533 -0.995040 0.024017
0.023924 -0.020248 -0.076603 0.996752 -0.063294 -0.049789
-0.020031 0.026874 0.065527 -0.992240 0.042068 -0.117004
0.021340 -0.033967 -0.090527 0.652509 -0.056587 -0.755666
0.003492 -0.046341 0.021992 -0.024830 -0.998803 0.042148
0.025120 0.023283 -0.061953 0.998159 0.048663 0.036213
0.021339 0.037452 -0.002833 0.996549 0.071266 0.042570
-0.019295 -0.015491 -0.075755 -0.998160 0.001960 -0.060598
-0.013439 0.043394 -0.016241 -0.199628 0.979375 -0.031184
0.025535 0.012720 -0.074239 0.999645 -0.024273 -0.011026
0.013585 0.042704 -0.015700 0.068599 0.997629 -0.005580
-0.009721 -0.043907 0.082561 -0.018573 -0.471354 0.881749
-0.020633 -0.008719 -0.039445 -0.999646 0.015913 -0.021327
0.013578 0.014752 -0.092117 0.033231 0.011241 -0.999384
0.015771 0.030476 0.081976 0.235253 -0.028593 0.971514
0.021325 0.028480 0.008193 0.997376 0.041674 0.059199
0.016584 0.012055 0.082100 0.559928 0.014067 0.828422
-0.018391 0.005962 -0.081276 -0.994059 0.035286 -0.102961
0.016120 -0.016515 0.075831 0.999461 -0.028354 0.016524
0.016204 -0.012017 0.078999 0.999384 -0.032111 0.014156
0.021710 0.036333 -0.009174 0.995619 0.079070 0.049899
0.018560 -0.036439 0.013351 0.987539 -0.148706 0.051514
0.023004 0.007769 -0.009384 0.997964 -0.004495 0.063628
-0.019844 0.020198 0.021999 -0.998149 0.054920 -0.026126
-0.021466 -0.011149 0.018454 -0.999257 0.023101 0.030848
-0.020930 -0.001321 -0.000928 -0.999381 0.033919 -0.009358
-0.007391 0.043418 -0.022574 0.001172 0.999758 0.021949
0.016582 -0.006770 0.063966 0.998796 -0.003523 0.048929
0.018331 -0.003527 0.043249 0.995265 -0.009252 0.096760
-0.001176 0.044564 0.063772 0.083017 0.995692 -0.041309
-0.020029 -0.032194 -0.033987 -0.996320 -0.077259 -0.037116
-0.016065 0.018902 -0.090657 -0.715454 0.021772 -0.698321
-0.018398 0.025203 -0.030814 -0.990997 0.129125 -0.035390
-0.021179 0.001471 0.081632 -0.508486 0.013439 0.860965
-0.015731 0.041828 -0.025586 -0.789439 0.611996 -0.047396
0.017817 -0.044611 -0.001124 0.939543 -0.338745 0.050097
0.020074 0.032859 0.027570 0.997756 0.030244 0.059733
0.004821 0.043509 0.019747 0.056382 0.998409 -0.000729
0.016253 -0.013209 0.072541 0.999629 -0.019181 0.019343
-0.018486 0.043759 0.049761 -0.894005 0.437549 -0.096469
-0.021914 -0.001307 0.081321 -0.663033 0.011476 0.748502
-0.018661 0.036323 0.022517 -0.992521 0.095821 -0.075629
-0.018585 -0.045730 -0.002224 -0.265070 -0.964143 0.012884
-0.010345 0.039593 0.081850 -0.013611 0.024230 0.999614
-0.012549 0.041184 -0.080204 -0.699617 0.713597 -0.036259
-0.020809 -0.026495 -0.020847 -0.998722 -0.045998 -0.020948
0.018327 -0.046123 -0.023878 0.829960 -0.555387 0.052076
0.021586 -0.023339 -0.009745 0.991155 -0.118339 0.060058
0.022683 0.039608 -0.036415 0.973033 0.230612 0.005024
0.016993 0.014070 0.060589 0.996868 -0.014858 0.077677
-0.021041 0.027550 0.074935 -0.994597 0.047304 -0.092409
0.024299 -0.005287 -0.038051 0.998341 -0.040099 0.041324
0.018923 0.005087 0.039675 0.993979 -0.017378 0.108182
-0.013302 -0.046419 -0.020155 -0.083483 -0.996450 0.010867
-0.021063 -0.033528 0.008597 -0.999246 -0.032666 -0.020962
0.012341 -0.047003 -0.003132 0.005719 -0.999557 0.029222
0.020892 -0.013104 0.012152 0.995548 -0.050240 0.079756
0.021977 -0.004222 -0.091241 0.517609 -0.057595 -0.853677
0.014763 -0.039444 0.078421 0.988619 -0.080488 -0.127096
-0.020378 0.008675 0.021796 -0.998681 0.051297 0.002430
-0.021224 -0.030911 0.022486 -0.999042 -0.020962 -0.038410
-0.020227 -0.045097 0.063558 -0.232955 -0.972383 0.014280
-0.018991 0.017113 -0.043728 -0.994051 0.105353 -0.027624
0.017732 0.039529 0.065028 0.992953 -0.093427 0.072906
0.011046 -0.046624 -0.090795 0.022729 -0.235427 -0.971626
-0.007790 -0.036984 -0.091970 0.042094 -0.041281 -0.998260
-0.007415 0.010029 0.082891 -0.021316 0.022261 0.999525
0.001270 0.043526 0.014292 0.044399 0.998884 -0.016136
0.018076 -0.037692 0.018617 0.987570 -0.147936 0.053111
-0.017953 0.036033 0.000801 -0.990192 0.135011 -0.035942
-0.003882 0.023042 -0.091825 -0.008747 0.029674 -0.999521
-0.021145 -0.007399 0.010289 -0.999693 0.024325 -0.004769
-0.004679 -0.047584 -0.047261 -0.068585 -0.997503 0.016840
0.024097 0.039787 -0.074070 0.929471 0.368886 0.002627
-0.018321 0.026778 -0.026030 -0.989812 0.137672 -0.036309
-0.016358 0.039988 -0.023800 -0.974762 0.216397 -0.054871
0.024519 0.027548 -0.053407 0.996705 0.067977 0.044254
-0.012202 -0.045684 0.050169 -0.027323 -0.999571 -0.010519
-0.016363 0.045328 0.076197 -0.021961 0.999705 -0.010360
-0.017527 0.042482 0.013671 -0.827788 0.560851 -0.014626
0.023204 0.002414 -0.012430 0.997753 -0.015944 0.065070
0.018804 -0.039132 -0.001159 0.983343 -0.177026 0.041220
-0.003777 0.044767 0.062941 0.075863 0.996388 -0.038160
0.022629 -0.031379 -0.059513 0.990352 -0.136288 0.025072
-0.019695 0.013636 -0.028205 -0.996532 0.080873 -0.019577
-0.012932 0.044223 0.028993 0.040623 0.999029 -0.017062
0.010399 0.043406 0.081719 0.108338 0.839914 0.531796
0.012857 -0.015358 0.083417 0.039543 0.007628 0.999189
-0.007114 0.045044 0.065127 0.075840 0.996874 -0.022156
-0.018643 0.042153 0.056142 -0.998047 0.062363 0.003620
-0.015387 -0.003395 -0.091654 -0.424789 0.033540 -0.904671
0.023013 0.026105 -0.018876 0.996372 0.067025 0.052452
-0.019040 0.012398 -0.058951 -0.995479 0.089215 -0.032601
0.020416 0.038688 0.015825 0.998896 0.018778 0.043053
-0.021531 -0.031956 0.017691 -0.998994 -0.014801 -0.042338
0.012237 -0.047532 -0.033006 0.027431 -0.999295 0.025626
0.004967 -0.009380 -0.092300 0.006550 -0.001735 -0.999977
-0.015417 0.038727 -0.049943 -0.979081 0.196548 -0.052628
0.023815 -0.019787 -0.053712 0.996059 -0.085381 0.024001
0.023868 0.002900 -0.087532 0.988768 -0.070457 -0.131807
-0.005174 0.044787 0.061633 0.090938 0.994358 -0.054609
-0.020772 -0.040256 0.006918 -0.998235 -0.044175 -0.039686
-0.014369 0.043205 -0.014589 -0.377773 0.924780 -0.045489
-0.019397 -0.030569 -0.056571 -0.996489 -0.077612 -0.031405
0.008189 0.044598 0.078658 0.047714 0.997789 0.046256
0.022622 -0.031920 -0.061522 0.989814 -0.138643 0.032345
-0.010537 0.016709 -0.092006 -0.097955 -0.002727 -0.995187
-0.018791 0.041235 0.039302 -0.998019 0.060132 -0.018492
-0.002676 0.044751 0.065644 0.078231 0.996906 -0.007578
-0.020739 0.004315 0.009197 -0.999059 0.041862 -0.011379
-0.014938 0.034940 -0.074596 -0.973491 0.224959 -0.041345
-0.019196 0.026167 0.057005 -0.998297 0.047143 -0.034366
0.006878 0.043220 0.009664 0.058519 0.998228 -0.010783
-0.020559 0.005015 -0.011653 -0.998360 0.054978 -0.015973
0.013244 0.040266 -0.091526 -0.119563 0.356029 -0.926794
0.006812 0.042136 -0.055247 0.035298 0.997957 0.053244
0.008575 -0.047707 -0.034976 0.015560 -0.999533 0.026303
-0.002200 -0.015586 -0.092358 0.001568 0.001483 -0.999998
-0.018992 0.035138 0.046174 -0.999119 0.038012 0.017768
-0.020833 0.024407 0.081168 -0.626675 0.059263 0.777024
-0.009702 0.043832 -0.086856 -0.253585 0.922702 0.290370
-0.012387 -0.026357 -0.092330 -0.121997 0.010292 -0.992477
-0.022651 -0.023115 0.071242 -0.997790 0.029748 -0.059411
-0.003739 -0.046910 -0.011021 -0.047153 -0.998617 0.023266
-0.013286 -0.047214 -0.079137 -0.075805 -0.997112 0.004628
-0.020329 0.011021 -0.000543 -0.998145 0.059732 -0.011775
0.024701 -0.002800 -0.077601 0.996184 -0.045620 -0.074412
0.024907 -0.005987 -0.068436 0.998820 -0.046467 -0.014106
0.025084 0.008907 -0.049856 0.999133 0.005673 0.041238
0.020221 -0.022709 0.011962 0.993130 -0.091472 0.072983
-0.017471 -0.045640 0.014515 -0.061903 -0.998044 0.008731
-0.000156 -0.026771 -0.092222 0.017793 -0.024886 -0.999532
-0.017836 -0.039287 -0.081095 -0.993222 -0.111158 -0.033964
-0.020042 -0.042548 -0.010250 -0.992065 -0.120192 -0.036892
-0.020827 -0.003205 0.022022 -0.999413 0.034209 -0.001678
0.017275 0.030543 0.064560 0.995137 -0.049943 0.084905
-0.013544 -0.047238 -0.083851 -0.111323 -0.993746 -0.008732
-0.018071 0.039754 0.015271 -0.993996 0.077374 -0.077366
0.016016 -0.048387 -0.087984 0.010445 -0.999906 -0.008873
0.016741 0.000392 0.081474 0.955130 -0.001433 0.296183
0.005888 0.041807 -0.043551 0.041788 0.998802 -0.025449
0.004517 -0.043233 -0.091364 0.038688 -0.059648 -0.997469
0.016296 -0.009214 0.078689 0.999465 -0.031963 0.006995
0.017337 0.013557 0.081644 0.859999 -0.030718 0.509371
0.019701 0.011136 0.032687 0.995030 -0.033739 0.093684
-0.011801 0.044478 0.038314 0.016746 0.999802 -0.010709
-0.017465 0.025085 -0.059076 -0.986471 0.161074 -0.030486
0.023728 0.005534 -0.020974 0.998515 -0.006528 0.054080
-0.020762 0.004674 0.006035 -0.999002 0.042880 -0.012527
0.017025 0.003569 0.058744 0.996132 -0.006351 0.087635
-0.020318 -0.034552 -0.019943 -0.996891 -0.073242 -0.029057
-0.020103 -0.034387 -0.026971 -0.996187 -0.079609 -0.035687
-0.011134 -0.040863 -0.092035 0.049266 -0.029661 -0.998345
-0.021028 -0.003951 -0.000433 -0.999438 0.032802 -0.006945
-0.002776 0.043460 -0.007249 0.023970 0.999690 -0.006788
-0.021312 -0.027451 0.011285 -0.998172 -0.023150 -0.055829
-0.003390 -0.045958 0.049753 -0.038550 -0.999255 0.001834
0.015638 0.042823 0.023692 0.016409 0.999800 -0.011451
-0.019644 -0.016741 -0.067899 -0.998980 -0.014598 -0.042737
0.023660 -0.009148 -0.027719 0.997340 -0.056599 0.045920
0.011295 -0.010047 0.083440 0.046944 0.010635 0.998841
-0.019450 0.042749 0.065733 -0.988662 0.117845 -0.093058
0.024539 -0.011122 -0.053577 0.997864 -0.063179 0.016607
0.009322 -0.048017 -0.090088 -0.003035 -0.840522 -0.541769
0.018283 0.036070 0.053424 0.996721 -0.041581 0.069420
0.023321 0.032511 -0.037384 0.994947 0.090649 0.043159
-0.007468 -0.046497 -0.002841 -0.063061 -0.997724 0.023886
-0.017564 0.040562 0.003964 -0.980831 0.192527 -0.030050
0.018505 0.038352 0.051958 0.996353 -0.051267 0.068215
0.022759 0.039658 -0.038244 0.960370 0.273770 0.052338
0.023682 -0.022342 -0.057653 0.994319 -0.103175 0.026150
-0.018785 0.041759 0.040630 -0.989237 0.145274 -0.017455
-0.020567 -0.011495 -0.043643 -0.999612 0.000198 -0.027856
0.003906 0.043589 0.031350 0.048163 0.998676 -0.018046
0.017126 -0.044717 0.015473 0.896675 -0.437321 0.068739
-0.005542 -0.046040 0.027115 -0.037285 -0.999300 0.003139
0.019031 -0.020232 0.031260 0.991643 -0.062351 0.112943
0.008628 0.043178 0.020846 0.047071 0.998887 0.003165
-0.018803 -0.031365 -0.072584 -0.996281 -0.082078 -0.026220
0.023058 0.033689 -0.033776 0.994782 0.092005 0.044088
0.008319 0.043450 0.044108 0.048967 0.998629 -0.018504
0.005148 0.044159 0.065034 0.074338 0.997197 -0.008454
-0.020420 -0.010605 -0.048170 -0.999601 0.003050 -0.028066
-0.021155 -0.008016 -0.001265 -0.999730 0.023214 -0.001184
-0.013864 -0.036956 0.082642 0.030571 -0.011012 0.999472
-0.019939 0.019374 0.031988 -0.998777 0.043602 0.023288
0.011522 0.043396 0.053147 0.057407 0.998214 -0.016547
0.020477 -0.036991 -0.027397 0.981478 -0.185540 0.047702
0.023883 0.024360 -0.035258 0.996832 0.066993 0.042861
-0.019883 -0.040711 -0.019027 -0.995752 -0.085213 -0.034884
-0.017699 -0.034791 -0.090601 -0.846158 0.007331 -0.532881
0.011639 0.042290 -0.065201 0.066789 0.996931 0.040828
0.000126 -0.002134 0.083363 -0.047705 0.010251 0.998809
-0.014490 0.045465 0.062124 0.051570 0.997116 0.055683
0.022828 -0.016795 -0.021358 0.995555 -0.080697 0.048556
-0.004109 -0.014860 0.083260 -0.035984 -0.004808 0.999341
-0.010037 -0.014719 -0.092349 -0.033480 0.008856 -0.999400
0.019098 -0.023591 0.026920 0.995496 -0.068300 0.065746
-0.017598 0.037551 -0.002844 -0.990240 0.133488 -0.040063
0.015768 -0.025041 0.076781 0.998528 -0.049293 0.022641
0.016188 -0.027862 0.061965 0.997272 -0.047634 0.056396
0.016703 -0.043297 0.028405 0.984007 -0.173887 0.038636
-0.020317 -0.011570 -0.051482 -0.999380 -0.002767 -0.035098
-0.012957 -0.045713 0.058984 -0.019624 -0.999771 0.008572
-0.018875 -0.011090 -0.080687 -0.993021 0.012040 -0.117321
0.020046 -0.022901 0.014296 0.994877 -0.080058 0.061726
-0.019230 0.036725 0.061961 -0.992133 0.036330 -0.119804
0.013543 0.020221 0.082395 0.173523 0.012249 0.984754
-0.023029 -0.041097 0.071868 -0.998121 0.027092 -0.054966
-0.019572 -0.045508 0.003519 -0.542010 -0.837867 -0.064843
0.012106 0.043054 0.023329 0.048320 0.998688 -0.016960
-0.012248 -0.046072 0.004473 -0.066711 -0.997685 0.013192
0.021609 0.009833 0.010121 0.997592 -0.000544 0.069360
-0.017574 -0.043480 -0.070055 -0.990375 -0.132172 -0.041078
-0.021422 -0.023449 0.020033 -0.996622 -0.002978 0.082075
-0.019169 -0.045539 0.046485 -0.102316 -0.994069 -0.036859
-0.021005 -0.003841 -0.007211 -0.999354 0.035554 -0.005291
0.017581 0.042537 0.004196 0.055678 0.998269 -0.018925
-0.019968 -0.026344 -0.048242 -0.997727 -0.060752 -0.029160
-0.019970 -0.045258 0.000022 -0.726023 -0.687633 0.007186
0.018215 0.040936 0.060578 0.999336 -0.004319 0.036186
0.008452 -0.047216 -0.010109 -0.006755 -0.999743 0.021637
-0.021721 0.008099 0.073610 -0.995112 0.038966 -0.090737
0.015610 -0.018984 0.082743 0.820447 -0.077950 0.566384
0.019308 0.024070 0.039914 0.995309 -0.016134 0.095396
-0.017090 -0.043957 -0.085544 -0.986748 -0.157317 -0.039743
0.019208 -0.048073 -0.080145 0.337948 -0.940636 0.031551
-0.004034 -0.048007 -0.082732 -0.059682 -0.998173 -0.009389
0.020674 -0.028707 -0.005763 0.989536 -0.135030 0.050857
-0.006243 0.035530 -0.091323 -0.009121 0.048941 -0.998760
0.012734 0.042371 -0.068954 0.078942 0.996293 0.034172
-0.020897 -0.031049 -0.005636 -0.998647 -0.050601 -0.012018
-0.011380 -0.047325 -0.072167 -0.083508 -0.996374 0.016304
0.009474 0.021529 0.083028 0.102128 -0.006519 0.994750
0.020673 0.000517 0.021135 0.996731 -0.012078 0.079887
0.004387 -0.047960 -0.046846 -0.010355 -0.999824 0.015638
-0.011650 -0.013791 0.083074 -0.034609 0.001222 0.999400
0.016335 -0.007663 0.076419 0.999680 -0.024853 -0.004705
-0.022131 -0.015746 0.066047 -0.995195 0.050075 -0.084139
-0.003218 -0.003877 -0.092319 -0.000204 0.003607 -0.999993
0.024175 0.026068 -0.043800 0.996307 0.070225 0.049399
0.023546 -0.005058 -0.021739 0.998032 -0.038521 0.049482
-0.005298 0.043496 -0.008191 0.012559 0.999859 -0.011191
-0.013631 0.006398 -0.091601 -0.154267 0.003325 -0.988024
-0.020996 -0.028293 -0.008228 -0.999124 -0.038827 -0.015588
0.010774 0.031714 -0.091770 0.005052 0.039774 -0.999196
-0.017615 -0.024497 -0.089702 -0.945982 -0.028188 -0.322991
0.002741 0.043407 0.009872 0.043304 0.998978 -0.012934
0.003246 0.041908 -0.045045 0.044421 0.998975 -0.008685
-0.020339 -0.022145 -0.043499 -0.998789 -0.042592 -0.024628
-0.021235 -0.026621 0.009465 -0.999731 -0.019055 -0.013248
-0.018866 -0.035311 -0.059769 -0.994626 -0.098130 -0.033019
-0.009057 0.042492 -0.060854 0.002056 0.999987 -0.004641
0.013550 0.043297 0.054008 0.045924 0.998904 -0.009023
0.011103 -0.046614 0.014605 -0.004360 -0.999637 0.026576
0.014308 -0.047718 -0.046070 0.022174 -0.999533 0.021047
-0.020067 -0.014138 -0.057694 -0.999440 -0.013463 -0.030645
0.016996 0.008825 0.059380 0.997449 -0.003396 0.071303
-0.006274 -0.045875 0.044601 -0.035961 -0.999342 -0.004816
0.014763 -0.039444 0.078421 0.988619 -0.080488 -0.127096
0.022844 0.024903 -0.014381 0.996581 0.061794 0.054851
0.021458 -0.035122 -0.043045 0.984214 -0.171416 0.044046
0.019614 -0.004307 0.030176 0.994975 -0.025917 0.096712
-0.020311 0.042191 0.074819 -0.984923 0.141123 -0.100058
0.016919 0.021264 0.077221 0.992044 -0.011152 -0.125398
-0.006648 -0.046771 -0.011667 -0.058766 -0.998117 0.017584
0.024173 0.005994 -0.029355 0.998805 -0.004996 0.048621
0.022807 -0.001917 -0.007938 0.997341 -0.026400 0.067934
0.000009 -0.048060 -0.072397 -0.036927 -0.999165 0.017490
0.009369 -0.046739 0.010474 -0.002074 -0.999595 0.028372
-0.019669 -0.011704 -0.068299 -0.999107 0.000089 -0.042254
0.016745 0.036303 0.082016 0.364760 -0.005324 0.931086
-0.019544 0.043108 0.067304 -0.975288 0.210334 -0.067621
0.024843 0.006062 -0.044384 0.998859 -0.005934 0.047397
-0.023236 -0.043842 0.078343 -0.777403 -0.625629 -0.065054
0.023394 -0.027297 -0.069978 0.994357 -0.105224 0.013495
0.024517 0.021213 -0.090665 0.793056 -0.040061 -0.607830
0.020758 -0.026116 -0.001635 0.991280 -0.116344 0.061865
-0.019991 0.015066 0.058605 -0.998877 0.037889 -0.028455
-0.005265 -0.047045 -0.022281 -0.057338 -0.998299 0.010573
-0.002057 -0.046578 0.006999 -0.039929 -0.998882 0.025309
0.018437 -0.047670 -0.058512 0.394735 -0.917555 0.047718
-0.017983 0.013510 -0.083189 -0.993655 0.039808 -0.105194
0.016516 0.011430 0.067601 0.999843 -0.008576 0.015478
0.019616 -0.034812 -0.002786 0.985939 -0.160191 0.047566
-0.020677 -0.002149 -0.027347 -0.999016 0.041618 -0.015347
0.009806 -0.033352 -0.091655 0.045698 -0.047719 -0.997815
-0.021376 -0.021138 0.054601 -0.998584 0.039859 -0.035222
-0.019628 0.026267 0.027313 -0.997824 0.065935 -0.000787
0.016669 0.013105 0.064325 0.997424 -0.011440 0.070813
-0.017794 0.032822 -0.016947 -0.987960 0.150445 -0.036067
-0.019110 -0.044851 0.077731 -0.082341 -0.995655 0.043477
-0.022566 -0.042676 0.060508 -0.990292 -0.125097 -0.060607
-0.003270 0.042445 -0.038072 0.036146 0.997544 -0.059997
0.007748 0.023453 -0.092042 -0.002923 0.024333 -0.999700
0.004212 -0.047742 -0.036192 -0.010069 -0.999647 0.024603
0.007448 0.043086 0.001742 0.057228 0.998337 -0.006957
0.006125 -0.045941 0.055056 -0.018533 -0.999799 0.007601
-0.008584 0.044261 0.040849 0.040214 0.998882 0.024836
0.018893 -0.010864 0.036589 0.995100 -0.027327 0.095021
-0.016370 -0.046859 -0.073999 -0.547480 -0.836595 0.019333
0.003792 0.043450 -0.088624 0.075967 0.924196 -0.374287
0.022008 0.024110 -0.091608 0.115767 -0.001046 -0.993276
-0.019771 0.022218 0.010866 -0.996654 0.075893 -0.030351
0.023974 0.013091 -0.026496 0.998553 0.018167 0.050619
-0.021244 -0.013463 -0.000186 -0.999890 0.009916 -0.011045
-0.017684 0.041313 0.009209 -0.956971 0.286381 -0.046825
0.022646 0.016942 -0.005449 0.997584 0.023515 0.065371
-0.000157 0.042702 -0.066309 -0.008086 0.999258 0.037669
-0.005342 -0.046787 -0.009045 -0.048688 -0.998544 0.023207
-0.020870 -0.025743 -0.018655 -0.999163 -0.036684 -0.018081
0.017221 0.020981 0.059611 0.996275 -0.033942 0.079266
0.024980 0.009036 -0.047824 0.999264 0.002054 0.038305
0.024423 0.020072 -0.041591 0.997158 0.051792 0.054714
0.024694 -0.004998 -0.047324 0.998226 -0.043415 0.040744
-0.008245 -0.045720 -0.091855 0.066110 -0.206398 -0.976232
0.016487 0.007875 0.070190 0.999900 -0.009631 -0.010309
-0.006360 -0.047562 -0.055258 -0.075486 -0.997083 0.011299
0.006963 -0.046206 0.037906 -0.013835 -0.999772 0.016293
-0.000811 0.043496 0.006334 0.038973 0.999159 -0.012744
0.020576 -0.025126 0.002978 0.992204 -0.107680 0.062736
0.021706 0.029968 0.000121 0.996852 0.058637 0.053364
-0.019040 0.012398 -0.058951 -0.995479 0.089215 -0.032601
0.008135 -0.029273 -0.091874 0.028403 -0.028469 -0.999191
-0.006790 -0.045800 0.053641 -0.018562 -0.999683 -0.017026
0.019923 0.040814 -0.090809 0.051301 0.701428 -0.710892
-0.017406 0.021884 -0.079060 -0.991270 0.130428 -0.019274
0.016120 -0.016515 0.075831 0.999461 -0.028354 0.016524
-0.007813 0.043675 0.002972 0.009562 0.999923 -0.007903
0.012817 0.043297 0.049168 0.037246 0.999306 -0.000838
0.020553 0.004140 0.023417 0.996352 -0.016460 0.083736
0.015004 -0.020409 0.083321 0.584568 -0.005350 0.811327
-0.013602 0.042913 -0.030887 -0.330644 0.942636 -0.045949
-0.020938 -0.019821 -0.025186 -0.999508 -0.023334 -0.020972
0.015405 -0.040305 0.059504 0.995536 -0.083498 0.044003
-0.017649 0.037639 -0.001569 -0.990983 0.127738 -0.040433
0.023385 0.030589 -0.034958 0.995420 0.085139 0.043471
-0.019728 -0.003442 -0.063901 -0.998780 0.026476 -0.041692
0.016629 0.026491 0.081715 0.467364 -0.007818 0.884030
-0.013747 0.038782 -0.079525 -0.957937 0.279597 -0.064675
-0.021322 -0.018292 0.056474 -0.997849 0.037903 -0.053481
0.019193 -0.021177 0.029201 0.995760 -0.064998 0.065098
0.015535 0.041696 -0.053831 0.043744 0.998614 0.029258
-0.019870 0.021305 0.019428 -0.994974 0.069821 0.071777
-0.015482 -0.046715 -0.050791 -0.189805 -0.981615 0.020155
0.024339 0.002173 -0.034250 0.998921 -0.016799 0.043287
-0.004134 0.015206 0.082784 -0.028128 0.029836 0.999159
0.023682 -0.011038 -0.030686 0.997066 -0.061330 0.045797
0.022977 0.031057 -0.026471 0.995275 0.086377 0.044341
-0.019801 -0.045197 -0.008268 -0.780745 -0.624407 -0.023507
0.020755 -0.006952 0.017697 0.995773 -0.033570 0.085495
-0.003584 0.005097 -0.092205 -0.000388 0.021583 -0.999767
0.001661 0.043409 0.006201 0.039298 0.999111 -0.015281
-0.015079 0.044167 0.020439 -0.116787 0.993064 0.013599
-0.017794 0.032822 -0.016947 -0.987960 0.150445 -0.036067
0.016581 -0.018500 0.061316 0.998092 -0.027530 0.055275
0.009178 -0.048089 -0.059873 0.021858 -0.999748 0.005063
-0.021042 -0.030629 0.002708 -0.998820 -0.040029 -0.027505
0.024358 0.031950 -0.058293 0.995111 0.091065 0.038228
-0.018895 0.034236 0.022918 -0.992879 0.097537 -0.068391
0.017499 -0.045166 0.002694 0.921575 -0.385711 0.043892
-0.001347 0.024871 -0.091829 -0.023518 0.026660 -0.999368
-0.017355 -0.045480 0.045389 -0.023775 -0.999626 -0.013547
0.022239 -0.034008 -0.059581 0.988159 -0.149278 0.035478
0.014157 0.023527 -0.091974 0.026289 0.020149 -0.999451
-0.007897 -0.029229 -0.092250 0.010744 -0.025023 -0.999629
-0.021123 -0.031206 0.006476 -0.999078 -0.037751 -0.020445
-0.015877 0.015528 0.082401 -0.065231 0.025278 0.997550
0.007531 -0.048121 -0.061983 0.007926 -0.999968 -0.000428
0.019208 -0.048073 -0.080145 0.337948 -0.940636 0.031551
0.017281 0.025358 0.079016 0.943166 -0.022858 -0.331535
0.023768 0.038693 -0.059188 0.991090 0.128672 0.034403
0.019538 -0.005544 -0.091766 0.174653 -0.011395 -0.984564
-0.014532 0.033883 -0.090724 -0.667301 0.146821 -0.730174
-0.007311 -0.045873 0.038749 -0.037057 -0.999312 -0.001282
0.015734 -0.022137 0.082096 0.936705 -0.016780 0.349717
-0.006936 -0.045858 0.036088 -0.036793 -0.999319 0.002818
-0.020096 0.014735 -0.000009 -0.997373 0.071749 -0.009922
-0.020376 -0.040532 -0.004565 -0.998090 -0.053930 -0.030119
0.003947 -0.027367 -0.092140 0.032606 -0.036892 -0.998787
-0.013556 -0.046434 -0.023532 -0.085296 -0.996204 0.017379
-0.015115 -0.045852 0.005604 -0.059633 -0.998094 0.015864
-0.020904 -0.001936 -0.012095 -0.999053 0.041891 -0.011743
0.023879 -0.006412 -0.083792 0.990392 -0.048963 -0.129328
-0.003201 -0.043454 -0.091544 0.028278 -0.038331 -0.998865
0.014078 -0.048319 -0.082320 0.015776 -0.999731 0.016979
0.019555 0.014202 0.034424 0.996115 -0.002182 0.088040
-0.021383 -0.017781 0.016515 -0.998383 0.006244 -0.056508
-0.018125 0.031219 -0.014310 -0.989201 0.141724 -0.037365
-0.001498 -0.047200 -0.020381 -0.042588 -0.998983 0.014819
0.018046 0.039045 0.080658 0.994606 0.011758 0.103055
-0.019492 -0.037341 -0.036892 -0.996217 -0.079649 -0.034757
-0.003277 -0.045963 0.043863 -0.018242 -0.999806 0.007442
0.019590 -0.016494 0.026317 0.994211 -0.054925 0.092348
-0.019406 0.020650 0.053604 -0.998958 0.045146 -0.006634
0.012587 -0.047996 -0.060769 0.032166 -0.999478 0.003114
-0.018933 0.027513 -0.002947 -0.993696 0.110725 -0.017534
0.002190 0.043600 -0.088450 0.064678 0.976151 -0.207233
0.002954 0.043455 0.012746 0.045722 0.998909 -0.009484
-0.016744 0.038577 -0.020974 -0.987974 0.147960 -0.044885
-0.020739 0.014005 0.066571 -0.992647 0.041313 -0.113781
0.020658 -0.045976 -0.071451 0.930943 -0.360403 0.058783
0.018532 -0.030645 0.025998 0.994168 -0.101951 0.035165
0.013852 0.038125 0.082495 0.136899 -0.015658 0.990461
-0.018771 0.014795 -0.060198 -0.994668 0.099145 -0.028398
0.024097 0.039787 -0.074070 0.929471 0.368886 0.002627
-0.022942 -0.029243 0.073352 -0.997827 0.020229 -0.062705
0.015057 -0.046287 0.028871 0.376226 -0.924032 0.067967
-0.002573 -0.048088 -0.080373 -0.051558 -0.998636 0.008241
0.002669 -0.045938 -0.091276 0.047436 -0.157227 -0.986423
-0.014154 0.037189 -0.085025 -0.956289 0.285653 -0.062556
-0.021042 -0.030629 0.002708 -0.998820 -0.040029 -0.027505
0.004560 0.042434 -0.060600 0.028560 0.999085 0.031844
0.003367 -0.045991 0.050764 -0.014476 -0.999773 0.015619
0.020871 -0.030657 -0.090883 0.451917 -0.062960 -0.889836
-0.019558 0.007286 -0.055138 -0.996997 0.071040 -0.030812
-0.021016 0.032690 0.077294 -0.989077 0.051065 -0.138269
-0.017578 0.023645 -0.063040 -0.987679 0.153094 -0.032458
0.021572 -0.033357 -0.038527 0.985040 -0.167771 0.039355
-0.008755 -0.047024 -0.035138 -0.082262 -0.996427 0.019133
0.017985 -0.022951 0.041073 0.995252 -0.052964 0.081656
0.021524 -0.024775 -0.011909 0.991362 -0.115845 0.061499
0.017435 -0.004284 0.052570 0.994325 -0.011790 0.105726
-0.001243 0.018424 0.082828 -0.068341 0.039519 0.996879
-0.014036 -0.047102 -0.073170 -0.113809 -0.993347 0.017576
0.016430 -0.005662 0.079348 0.999397 -0.034604 -0.002843
0.001932 -0.048243 -0.083978 -0.033641 -0.999389 -0.009486
-0.022312 -0.032460 0.063294 -0.996778 0.027993 -0.075171
0.023518 -0.013253 -0.084218 0.989574 -0.045218 -0.136746
0.025452 0.022442 -0.084221 0.998379 -0.018459 -0.053840
0.017912 0.008803 0.049653 0.994344 -0.012347 0.105490
-0.020402 -0.003064 -0.042937 -0.999045 0.036779 -0.023599
-0.015352 -0.045752 0.010104 -0.058462 -0.998223 0.011578
0.007615 0.042766 -0.025681 0.049304 0.997365 -0.053221
-0.020733 0.000451 0.031628 -0.998937 0.040291 0.022391
