-0.003765 -0.030596 0.064229 0.002938 -0.015717 0.999872
0.015914 -0.004237 0.063807 -0.680549 -0.726656 -0.093932
-0.046021 0.023128 0.040602 -0.898112 0.439766 -0.000452
-0.025335 -0.009728 -0.069736 0.015269 0.001943 -0.999882
0.017577 0.016169 0.064181 -0.000412 0.000092 1.000000
-0.047469 -0.018519 0.003646 -0.923797 -0.382842 0.005513
-0.042253 -0.027430 0.030373 -0.821450 -0.569759 0.024392
0.008637 -0.048364 0.043176 0.197693 -0.980255 0.004160
-0.010509 0.040124 0.062798 -0.013430 -0.034302 0.999321
-0.039368 0.032774 -0.046821 -0.759084 0.650875 -0.012356
0.017638 0.046785 0.058538 0.374111 0.879335 -0.294637
0.003957 -0.049032 0.048174 0.102507 -0.994732 -0.000886
0.023621 -0.042665 -0.036565 0.497801 -0.864744 -0.066423
-0.011523 -0.019189 0.064243 0.018554 0.043560 0.998879
0.037353 0.031641 0.028993 0.792275 0.609270 0.033008
-0.034214 0.031313 -0.070031 -0.215468 0.119716 -0.969145
0.008141 0.049822 0.026520 0.211818 0.976964 0.025978
-0.049894 0.011347 -0.069539 -0.956321 0.194288 0.218409
0.001842 0.043715 0.064980 -0.021903 -0.397605 0.917295
-0.017553 0.009772 0.063961 0.025789 -0.000412 0.999667
0.032575 0.037172 0.037594 0.683158 0.730056 0.017683
0.036597 0.004767 0.063828 0.022757 -0.068102 0.997419
0.005207 0.040065 -0.071112 -0.083272 -0.219306 -0.972096
0.033022 0.011570 0.063527 0.395026 0.401286 -0.826392
-0.007545 -0.049208 -0.069403 -0.155683 -0.980894 0.116662
0.001648 0.050645 -0.035775 0.054511 0.995052 -0.083070
-0.000428 0.029828 -0.069808 -0.004854 -0.132353 -0.991191
0.048187 -0.004353 0.037632 0.995869 -0.090706 -0.004164
0.019596 -0.024149 0.063942 0.053833 0.022650 0.998293
-0.016869 0.048048 0.019797 -0.306413 0.951894 0.002856
-0.027940 -0.027083 0.063323 -0.755924 -0.508978 -0.411729
-0.001964 -0.049484 -0.029715 -0.020822 -0.999769 -0.005401
0.037646 -0.030661 0.043900 0.782536 -0.622600 0.002443
0.023879 -0.023496 -0.070557 0.050905 -0.023116 -0.998436
-0.046669 -0.006196 -0.069797 -0.014683 -0.001822 -0.999891
0.024258 0.031189 -0.071060 -0.160641 -0.126181 -0.978914
-0.050507 -0.008871 -0.008935 -0.980318 -0.190896 0.050353
-0.036857 0.035447 -0.049653 -0.720304 0.693657 -0.001511
0.039386 -0.028354 0.007241 0.815857 -0.578168 0.009947
0.002720 0.033431 0.064054 -0.005248 -0.002465 0.999983
0.047868 0.007656 -0.068173 0.989418 0.138845 0.042131
-0.017839 -0.046996 -0.057639 -0.390745 -0.920456 0.008894
0.029797 0.034266 -0.070093 -0.029774 0.035014 -0.998943
-0.005842 0.032300 -0.070614 -0.011553 -0.177115 -0.984122
0.016573 -0.011421 0.063453 0.149780 0.946163 0.286951
0.040627 0.023252 -0.069893 -0.424555 -0.260045 -0.867254
-0.016610 0.041467 -0.070858 -0.133164 0.268514 -0.954027
0.012952 0.017887 -0.069533 -0.057041 -0.056110 -0.996794
-0.023781 0.015364 -0.069796 -0.005440 -0.006551 -0.999964
0.045632 -0.015721 -0.039521 0.948773 -0.315911 0.005455
-0.023251 -0.002576 0.064203 0.014701 0.033831 0.999319
-0.001051 0.051345 -0.066412 -0.058593 0.996853 -0.053402
0.032624 -0.036169 -0.010852 0.685628 -0.727805 -0.014615
0.038554 -0.029502 0.036763 0.796407 -0.604750 0.003582
0.042402 -0.023517 -0.048351 0.875232 -0.483666 -0.005968
-0.023554 0.046335 0.059365 -0.450624 0.860313 -0.238325
-0.020208 0.046991 -0.035033 -0.367390 0.929486 -0.032882
0.001422 0.050415 -0.019350 0.050042 0.995038 -0.085997
0.047242 0.011246 -0.008128 0.968407 0.248360 0.022485
0.046841 0.012708 -0.068625 0.963608 0.253243 0.085598
0.040149 -0.026843 0.011375 0.827526 -0.557329 0.067712
-0.002416 0.039336 0.063563 -0.063129 0.243263 0.967904
-0.003920 0.042645 0.063452 -0.046571 -0.658796 0.750879
0.033395 0.013563 0.063403 -0.369864 0.305392 0.877460
-0.000955 -0.049383 0.039204 0.018437 -0.999810 0.006264
0.025192 -0.014753 0.063112 0.076307 -0.030682 0.996612
0.048151 -0.001255 0.030672 0.999422 -0.029061 0.017648
-0.010631 0.004185 0.063993 -0.065451 0.054852 0.996347
0.034042 -0.005658 0.063642 0.041192 -0.027712 0.998767
-0.045985 0.023027 -0.060550 -0.886399 0.462915 0.002607
-0.037771 -0.032957 0.030681 -0.734092 -0.677214 0.049903
-0.037568 0.034437 -0.068638 -0.744918 0.657021 0.115849
0.005534 0.050022 0.048973 0.132643 0.991164 -0.000791
0.048416 0.001963 0.045493 0.999632 0.026919 -0.003263
0.044576 0.019499 -0.007897 0.915391 0.399253 0.051546
-0.051125 -0.007914 0.059164 -0.961713 -0.160627 -0.222053
-0.042635 -0.029552 -0.072642 -0.727789 -0.252980 -0.637436
0.025556 0.042243 -0.070415 0.589825 0.775226 0.226122
0.017846 0.046510 0.006911 0.450910 0.892551 -0.005779
0.043535 0.021870 -0.034158 0.905593 0.423758 -0.018150
-0.049189 0.014945 -0.043282 -0.953865 0.298090 0.035842
0.023621 -0.042665 -0.036565 0.497801 -0.864744 -0.066423
0.008668 0.049115 0.013223 0.212596 0.977068 -0.011921
0.017546 -0.004677 0.063298 0.378698 0.249117 0.891363
0.040833 0.027104 0.034977 0.845866 0.532611 -0.028920
0.010893 -0.007277 -0.069560 0.006380 -0.006041 -0.999961
0.009019 0.049243 -0.024160 0.243100 0.961872 0.125315
-0.003226 0.042933 0.063791 -0.051814 -0.741995 0.668400
0.010191 0.049166 0.003871 0.239552 0.970793 -0.013264
-0.033677 0.040175 0.064227 -0.590989 0.751020 0.294451
0.048149 -0.002922 0.011637 0.994925 -0.063933 0.077694
0.007450 -0.048659 -0.066106 0.166252 -0.985621 -0.030202
0.030297 0.013907 0.063259 -0.009157 -0.551624 0.834042
-0.009593 0.038546 0.063677 -0.076050 0.312164 0.946980
-0.046292 -0.020470 0.013861 -0.893131 -0.449628 -0.012334
-0.020807 0.046385 -0.073473 -0.068319 0.196363 -0.978148
0.026066 0.028457 0.063421 0.791240 0.513992 -0.331289
-0.029708 -0.040454 0.009438 -0.562263 -0.823932 0.070682
-0.021423 0.046103 -0.041797 -0.403463 0.914436 0.032014
0.046598 -0.013072 0.022024 0.965612 -0.259983 -0.001604
0.030636 -0.027994 0.064666 -0.227545 0.253345 0.940234
0.020703 0.015989 -0.069785 -0.007889 0.002189 -0.999966
0.027115 -0.014475 0.063089 -0.062112 -0.067575 0.995779
0.048339 -0.002165 0.040111 0.998885 -0.047205 0.000187
0.002474 0.009193 0.064125 0.046117 0.074395 0.996162
0.033570 0.005976 -0.070523 0.179282 0.042322 -0.982887
-0.037889 -0.032826 0.012492 -0.738096 -0.672349 0.056227
0.048442 -0.000905 -0.060347 0.999290 -0.037518 0.003372
-0.005343 0.050432 -0.026241 -0.099620 0.994022 0.044685
0.020944 0.044805 -0.041028 0.435757 0.899443 0.033439
-0.016969 0.041823 0.065105 0.098200 -0.231315 0.967910
-0.037226 -0.025240 -0.070666 -0.184333 -0.082698 -0.979379
-0.042253 -0.027430 0.030373 -0.821450 -0.569759 0.024392
-0.045195 0.024426 -0.063863 -0.875949 0.482397 0.002558
0.017803 -0.000867 0.064174 0.011851 -0.000265 0.999930
-0.029458 -0.028184 0.062943 0.030020 0.042364 0.998651
-0.041852 -0.028590 0.003863 -0.804925 -0.593336 0.006982
-0.032870 0.018928 -0.070026 -0.142929 0.085903 -0.985998
-0.047911 -0.017377 -0.001165 -0.929025 -0.363125 -0.071089
0.030505 -0.023384 0.063390 -0.085511 -0.005284 0.996323
-0.016873 0.047818 -0.003572 -0.340022 0.939727 -0.036018
0.046532 0.013390 -0.062918 0.969470 0.244325 0.020800
-0.030004 -0.040338 -0.012685 -0.573784 -0.818992 0.004940
-0.029206 0.039758 0.065201 0.187225 -0.266330 0.945524
-0.022306 -0.011387 -0.069644 0.044513 0.014657 -0.998901
-0.023923 0.044845 0.031862 -0.454365 0.890715 -0.013362
-0.008975 0.049931 -0.042796 -0.172402 0.981084 0.088043
0.009345 -0.047931 -0.020259 0.222138 -0.971587 -0.081685
-0.019994 -0.007765 -0.069460 0.006582 0.016994 -0.999834
0.015792 -0.047401 -0.072835 0.269182 -0.845368 -0.461404
-0.012585 0.004979 -0.069607 0.006732 -0.008654 -0.999940
-0.049192 -0.013783 -0.017958 -0.956659 -0.283923 -0.064736
-0.047469 -0.018519 0.003646 -0.923797 -0.382842 0.005513
-0.042163 -0.003632 -0.071045 0.144469 0.026539 -0.989153
0.009406 -0.048612 0.066114 0.078196 -0.495383 0.865148
-0.050417 0.009708 -0.066493 -0.984946 0.170322 -0.029536
0.045931 0.015547 0.020748 0.958478 0.285148 0.003230
0.008323 -0.048522 -0.058416 0.191138 -0.981544 0.006161
0.003478 -0.037662 0.063421 0.120908 0.039572 0.991875
0.047672 -0.008452 -0.007652 0.985003 -0.165987 0.047085
-0.029898 -0.040544 0.026063 -0.572066 -0.819681 0.029389
0.021031 -0.011340 0.063297 0.393505 -0.044949 0.918223
-0.039813 0.031752 -0.004749 -0.775293 0.631347 0.017918
-0.012213 0.029636 0.064055 -0.005580 0.023177 0.999716
-0.040397 -0.030653 -0.034216 -0.781243 -0.624195 0.006292
-0.041920 0.027384 -0.072971 0.486157 -0.290154 -0.824295
0.032840 0.011549 0.063337 0.576991 -0.029356 0.816223
0.013322 0.047781 -0.005935 0.274986 0.960614 0.040052
-0.004709 0.025660 -0.069880 0.003830 -0.033984 -0.999415
0.002246 -0.009002 0.064327 0.010332 -0.049856 0.998703
0.024861 0.017949 0.063220 -0.049645 -0.146937 0.987899
-0.017263 -0.044313 0.065561 0.126412 0.175837 0.976269
-0.049139 0.015089 -0.047154 -0.955144 0.296138 -0.001378
0.036308 0.008337 0.063304 0.063403 0.969345 -0.237384
0.041076 -0.025968 -0.043231 0.851799 -0.523100 0.028369
0.028854 0.013009 0.063434 0.847340 0.531048 0.001730
-0.017921 0.025840 0.064023 -0.021800 -0.024895 0.999452
-0.050261 0.010895 -0.045210 -0.976646 0.214834 0.002909
0.028794 -0.033407 -0.070033 0.025951 -0.052429 -0.998287
-0.046741 0.013471 0.064815 0.245957 -0.039070 0.968493
-0.043027 0.028287 0.051015 -0.826899 0.562217 -0.012244
0.015797 -0.002648 0.063322 0.236110 0.150029 0.960075
0.046872 0.012365 -0.015547 0.967318 0.253083 -0.015645
-0.023410 -0.044771 0.058791 -0.418735 -0.887439 -0.192646
0.029475 -0.013223 0.063407 -0.108201 -0.220657 0.969331
-0.051079 -0.004190 -0.010082 -0.998467 -0.055203 -0.003967
0.029502 0.016151 0.063701 0.941871 0.284836 -0.178180
0.046849 -0.012375 0.008849 0.968330 -0.247871 0.029953
-0.039486 -0.031627 0.021687 -0.755081 -0.655623 -0.003245
-0.040022 -0.021288 -0.070426 -0.120620 -0.092228 -0.988405
0.044760 0.019167 -0.060680 0.934116 0.356926 0.005562
0.023778 -0.030794 -0.070957 -0.152254 0.132000 -0.979487
0.029973 0.039022 0.005557 0.646054 0.763166 -0.013853
-0.049924 0.009826 -0.073161 0.185323 -0.123803 -0.974848
-0.022929 -0.034083 -0.070977 0.064290 0.145970 -0.987198
-0.036293 0.036313 0.017308 -0.697327 0.716000 -0.032832
-0.051079 -0.004190 -0.010082 -0.998467 -0.055203 -0.003967
0.048486 0.011679 0.062375 0.972943 0.229826 0.023700
-0.038762 -0.032521 -0.015691 -0.753544 -0.657397 -0.001047
-0.027393 0.042897 0.066141 -0.114395 0.229806 0.966490
0.040230 0.018106 0.065193 0.024243 -0.007242 0.999680
0.035081 0.034186 -0.014360 0.728000 0.685506 0.009906
-0.028192 -0.026522 0.063225 0.013871 0.137195 0.990447
0.015462 0.047574 0.041980 0.340483 0.940251 -0.000052
0.046803 -0.012401 0.018778 0.966813 -0.255292 -0.009936
-0.044409 0.025795 -0.045819 -0.864812 0.502094 0.001254
-0.000599 0.051315 -0.063982 -0.052396 0.998231 0.028109
0.016886 0.041947 -0.070082 0.043734 0.102219 -0.993800
-0.009169 0.049920 -0.068571 -0.176906 0.968028 -0.177839
0.047672 -0.008452 -0.007652 0.985003 -0.165987 0.047085
0.032217 0.015367 0.063672 0.862633 0.503126 0.052241
-0.044558 0.024371 0.065912 -0.002628 0.064747 0.997898
-0.028184 0.020623 0.063821 -0.023981 0.009542 0.999667
0.021365 -0.011342 0.063647 0.223696 0.246615 -0.942943
-0.008758 -0.035799 0.063942 -0.014155 -0.075318 0.997059
0.030157 -0.038843 -0.072996 0.446202 -0.372316 -0.813809
0.005218 0.032162 -0.070503 -0.008248 -0.134975 -0.990815
0.004961 -0.049144 -0.028028 0.138120 -0.990362 -0.010250
0.033783 -0.009787 -0.069920 0.017989 -0.006459 -0.999817
-0.034176 0.038119 -0.052271 -0.664563 0.747211 -0.005642
0.041387 -0.025174 0.052796 0.860294 -0.509789 -0.003092
0.041323 0.025424 -0.023401 0.849357 0.526276 0.040336
0.048191 -0.000191 0.011930 0.996776 -0.009560 0.079666
-0.037230 -0.029108 0.064982 0.118445 0.046122 0.991889
0.048064 0.002439 0.014227 0.998316 0.043648 -0.038208
-0.050561 -0.007443 0.029064 -0.985338 -0.161877 0.053901
0.043861 -0.020234 0.011391 0.908940 -0.412269 0.062150
0.032534 0.014885 0.063339 0.643669 0.287172 0.709382
-0.018078 -0.046824 -0.044654 -0.345804 -0.937730 0.032887
0.008180 0.035998 0.063988 0.006843 0.076848 0.997019
-0.043320 0.027826 0.009429 -0.822003 0.568568 0.032258
0.005801 -0.050202 0.063823 0.179113 -0.962422 0.204114
0.045721 0.016668 0.040363 0.946564 0.322511 -0.001621
0.018511 -0.005083 0.063359 0.266218 0.808768 0.524426
0.025474 0.016314 0.063528 0.033404 -0.763965 -0.644393
0.021986 -0.005991 0.063193 -0.042206 0.023847 0.998824
0.046091 0.015084 -0.046476 0.956035 0.293229 -0.003791
0.033942 -0.028551 0.065080 -0.065474 0.009320 0.997811
-0.025589 0.044228 0.051244 -0.485455 0.874261 -0.001472
0.034028 0.035473 -0.055446 0.716778 0.697293 -0.003305
0.011332 0.048977 0.011014 0.267319 0.960044 0.082804
-0.019037 0.046856 -0.070133 -0.439831 0.881767 0.170400
-0.042296 0.029083 -0.050379 -0.810543 0.585672 0.002938
-0.034652 0.037962 0.026679 -0.657145 0.753757 0.003159
0.018132 -0.005355 0.063369 -0.045178 0.508607 0.859813
0.001489 -0.049242 0.033685 0.054095 -0.997534 -0.044720
0.024157 -0.014442 0.063417 -0.119447 -0.252595 -0.960171
0.024232 0.016465 0.063533 -0.038169 0.787966 -0.614535
0.043248 0.022419 -0.049834 0.902451 0.430642 0.011360
0.030719 0.012181 0.063248 -0.225065 0.022008 0.974095
-0.043087 -0.027057 -0.063703 -0.835651 -0.549244 0.004274
-0.019826 -0.046045 -0.012521 -0.399527 -0.916577 -0.016258
-0.023096 0.045528 0.028328 -0.431207 0.900813 0.050961
0.020686 0.038224 0.065421 -0.165471 -0.357089 0.919297
0.044625 0.018214 -0.004535 0.931895 0.361912 0.024316
0.008257 0.042866 0.065106 -0.068913 -0.343370 0.936668
-0.039368 0.032774 -0.046821 -0.759084 0.650875 -0.012356
0.047990 0.009439 0.066059 0.322275 -0.005271 0.946632
0.027046 0.041236 -0.024677 0.582450 0.810141 0.066515
0.024918 -0.002199 -0.069815 -0.010791 0.002259 -0.999939
0.001970 -0.049382 -0.063538 0.087834 -0.996094 -0.009075
-0.005286 0.006348 -0.069770 -0.023920 0.019465 -0.999524
-0.039886 -0.015671 -0.071078 -0.003628 0.007433 -0.999966
0.018284 0.000286 0.064165 0.001451 -0.000876 0.999999
0.015306 0.020321 0.064164 0.025110 0.073465 0.996982
0.013802 -0.002862 0.063851 0.069729 -0.162304 0.984274
-0.049829 -0.011795 -0.008751 -0.965185 -0.254959 0.058430
0.007052 0.050263 -0.072973 0.065168 0.590961 -0.804063
-0.022737 0.045618 -0.052854 -0.392726 0.919602 0.009904
0.017754 -0.045640 0.023511 0.375621 -0.926744 -0.007335
0.032799 0.036398 -0.068885 0.684192 0.722787 0.097259
0.040833 0.027104 0.034977 0.845866 0.532611 -0.028920
0.044789 0.019000 0.028479 0.928192 0.368949 0.048322
0.043780 -0.017117 -0.070423 -0.681172 0.351393 -0.642283
-0.049163 -0.013713 -0.038686 -0.955103 -0.295119 -0.026142
-0.036830 -0.034153 0.066430 -0.186019 -0.142450 0.972165
0.022456 0.040425 0.065025 -0.050316 -0.109072 0.992760
-0.027631 0.014390 -0.069666 0.097543 -0.075441 -0.992368
-0.051388 0.002651 -0.031222 -0.999624 0.027355 0.002060
-0.051264 -0.001980 0.021544 -0.998585 -0.052943 -0.004948
-0.002187 0.012980 -0.069576 -0.014484 0.008340 -0.999860
0.032564 0.012549 0.063466 0.762968 0.644680 0.047614
-0.000627 0.039844 0.063235 0.170315 0.959271 0.225370
0.049678 -0.004437 0.063809 0.957138 -0.120997 0.263147
-0.048773 0.016223 0.056354 -0.940459 0.328928 -0.085688
0.007083 -0.003415 0.064267 0.054694 -0.004246 0.998494
-0.001301 -0.049043 0.030606 0.007949 -0.999165 0.040085
-0.033324 0.010235 0.063644 -0.029125 0.069672 0.997145
0.043270 -0.021865 0.001158 0.896117 -0.443433 -0.018483
-0.027940 -0.027083 0.063323 -0.755924 -0.508978 -0.411729
-0.004288 -0.048987 0.014647 -0.055028 -0.997493 -0.044501
-0.047557 -0.000656 -0.069877 0.194127 0.024238 -0.980677
0.045984 -0.015106 -0.061180 0.952621 -0.304145 0.002954
-0.048981 -0.014390 -0.025292 -0.943150 -0.326063 0.064434
0.021222 0.046304 0.061677 0.452014 0.882142 -0.132323
0.039180 -0.014132 -0.071044 0.193737 -0.079234 -0.977849
0.005896 -0.009775 0.063465 0.236301 0.100976 0.966419
-0.049163 -0.013713 -0.038686 -0.955103 -0.295119 -0.026142
0.018546 0.046321 0.040997 0.404546 0.914517 -0.000593
0.016359 -0.021775 -0.069761 -0.052485 0.034159 -0.998037
0.029966 0.027976 0.063511 -0.269538 -0.303417 0.913940
-0.023980 0.018279 -0.069769 0.023734 -0.015639 -0.999596
-0.000955 -0.049383 0.039204 0.018437 -0.999810 0.006264
0.035452 0.033993 -0.057168 0.740575 0.671954 -0.005178
0.041198 0.026056 -0.001074 0.857364 0.509106 -0.075746
0.028179 -0.039749 -0.046814 0.590797 -0.806693 -0.014333
-0.008355 -0.041545 0.064557 0.133572 0.569591 0.811002
0.044678 -0.009496 -0.070031 -0.489849 0.092521 -0.866884
0.047915 0.005427 0.030863 0.994732 0.102329 -0.006149
-0.037063 -0.017691 -0.070803 0.172355 0.006330 -0.985015
-0.014471 0.048696 -0.006335 -0.255067 0.965243 0.056979
0.000393 0.033092 -0.070651 0.000326 -0.123013 -0.992405
-0.038849 0.033583 0.019258 -0.753669 0.657082 -0.015045
-0.000886 -0.023235 0.064232 0.000916 0.003853 0.999992
0.008025 -0.048579 -0.054735 0.188136 -0.982130 0.005053
-0.021423 0.031950 -0.069846 -0.078442 -0.038594 -0.996171
0.016503 0.047276 0.066287 0.137170 0.398337 0.906924
0.039828 0.028597 0.037407 0.827344 0.561645 -0.007561
-0.019289 -0.047386 0.063117 -0.301689 -0.939106 0.164507
-0.050309 0.013749 -0.071038 -0.924787 0.256592 0.280944
0.017005 -0.002418 0.063603 0.024707 0.051808 -0.998351
0.014501 0.000874 0.063306 0.010206 0.025665 0.999618
0.048082 -0.005363 0.018439 0.993377 -0.114716 0.006586
-0.024176 0.005415 -0.069696 0.067393 -0.015341 -0.997609
-0.046285 -0.021628 0.026894 -0.885171 -0.461344 0.060286
-0.004882 0.050248 0.028949 -0.061616 0.991612 0.113616
-0.044880 0.004087 0.064833 0.302198 -0.053875 0.951722
-0.045321 -0.009124 0.064928 -0.104350 -0.062244 0.992591
0.039649 0.027718 -0.021656 0.822603 0.568614 -0.001831
-0.019673 -0.030419 0.063993 -0.010317 -0.026243 0.999602
0.046307 -0.001531 0.065072 -0.140179 0.002788 0.990122
0.026499 0.016058 0.063249 0.186274 0.150783 0.970859
-0.013164 -0.047962 -0.018500 -0.251274 -0.966172 -0.058073
-0.049407 0.014115 -0.028504 -0.962264 0.272118 -0.000244
0.048489 0.001435 -0.057641 0.999657 0.026108 -0.002158
0.018937 -0.013116 0.063479 0.291758 0.744848 0.600066
0.046845 0.012512 -0.033501 0.969393 0.245416 0.006883
0.020748 -0.041540 -0.070228 -0.140015 0.167482 -0.975882
0.029908 0.011425 0.063509 -0.297773 0.201734 -0.933078
0.045617 0.018130 0.058745 0.919960 0.330713 -0.210482
-0.017549 -0.042596 0.065438 0.008393 0.008882 0.999925
0.028046 0.040816 0.008070 0.604635 0.796433 0.010487
0.018117 -0.012202 0.063404 -0.052607 -0.505003 0.861513
-0.025998 0.043993 0.046653 -0.494233 0.869325 -0.002925
-0.049785 -0.009470 -0.073414 0.086349 -0.164530 -0.982585
0.040717 0.029133 0.065255 0.649936 0.417446 0.635076
-0.001323 0.050472 -0.068735 -0.402592 0.748585 -0.526821
-0.016985 -0.047751 -0.073080 -0.133611 -0.560028 -0.817629
0.023080 -0.042706 -0.003514 0.491083 -0.871092 -0.005938
0.006577 -0.000031 -0.069629 0.015201 -0.006212 -0.999865
-0.040855 -0.029614 0.029297 -0.829579 -0.553154 0.076280
0.028317 0.013792 0.063275 0.289821 0.199390 0.936081
0.044243 0.020113 0.002474 0.916213 0.400612 0.008005
-0.030376 -0.040273 0.042269 -0.592622 -0.805424 -0.009510
-0.003840 0.039715 0.063283 0.057940 0.287766 0.955946
-0.047592 -0.017086 -0.021955 -0.933305 -0.359078 0.002119
-0.047591 0.019031 0.029510 -0.929673 0.366584 0.036383
0.033408 -0.035495 0.007544 0.693899 -0.720044 -0.006460
0.014885 -0.046638 0.052404 0.328182 -0.944614 0.000108
-0.037264 0.035055 -0.058185 -0.727213 0.686370 0.007533
0.047908 -0.007026 0.052854 0.988629 -0.150335 -0.003519
-0.023229 0.007738 0.064067 -0.003788 0.023389 0.999719
-0.047122 -0.019394 0.051633 -0.916633 -0.399703 -0.004625
-0.008077 -0.049030 0.035259 -0.118845 -0.990751 -0.065490
0.036285 0.025715 -0.070034 0.118883 0.126259 -0.984848
0.030450 0.015778 0.063784 0.041599 0.326938 0.944130
-0.036212 -0.005646 -0.070400 -0.111317 -0.003925 -0.993777
0.002141 -0.023746 -0.069696 0.002622 0.054789 -0.998495
0.017547 -0.002870 0.063222 0.091520 0.072965 0.993127
-0.000528 0.050631 0.007216 0.039428 0.998718 -0.031734
0.004031 -0.049226 0.023971 0.105169 -0.994447 -0.003865
-0.017844 0.047931 -0.008195 -0.323716 0.944041 0.063199
-0.041933 0.029449 -0.032692 -0.815146 0.577240 0.048290
-0.046548 0.022081 0.045271 -0.911243 0.411847 -0.004302
-0.035824 -0.035846 -0.043197 -0.696952 -0.713857 0.068310
0.046634 0.012632 -0.002637 0.964525 0.258454 -0.053790
0.048325 -0.001634 -0.047854 0.999116 -0.041972 0.002318
0.046091 0.015084 -0.046476 0.956035 0.293229 -0.003791
-0.034760 -0.036549 0.003297 -0.672109 -0.740439 0.004373
0.023405 -0.013938 0.063192 -0.038970 -0.968426 0.246236
0.008668 0.049115 0.013223 0.212596 0.977068 -0.011921
-0.023554 0.046335 0.059365 -0.450624 0.860313 -0.238325
-0.051221 0.001285 -0.006700 -0.996997 -0.022294 0.074162
0.002703 -0.004690 -0.069633 0.002112 -0.029687 -0.999557
0.025670 0.015720 0.063529 -0.205495 -0.148905 -0.967264
0.038249 -0.030209 -0.034626 0.789800 -0.612933 -0.022995
0.045882 -0.015495 -0.042397 0.948738 -0.315088 0.024808
-0.015499 0.048442 0.055596 -0.250589 0.967943 -0.017086
0.014792 0.047804 0.046297 0.329631 0.944109 -0.001111
0.014967 0.001755 0.063337 -0.163654 0.003348 0.986512
0.028474 0.027556 0.063567 0.596424 0.789697 0.143726
0.023880 0.043369 0.004012 0.517510 0.855671 -0.003178
0.014855 0.020218 -0.069866 -0.025269 -0.013099 -0.999595
-0.042070 -0.028402 0.034684 -0.810489 -0.582847 -0.058274
0.002985 0.050767 -0.049422 0.091750 0.995436 0.026250
0.005582 0.018153 0.064154 0.001564 -0.006694 0.999976
-0.052046 0.003583 0.059633 -0.973367 0.008338 -0.229099
0.034178 -0.034155 -0.023213 0.700935 -0.708999 0.077534
-0.044865 0.024973 -0.056295 -0.866040 0.499963 0.003256
0.047493 -0.009554 -0.016495 0.979056 -0.202475 -0.021271
0.042073 -0.017041 -0.070209 -0.141531 0.156688 -0.977455
-0.029399 0.042404 -0.062049 -0.637470 0.769321 0.042156
0.026498 0.022381 0.063940 -0.017318 0.000033 0.999850
-0.051330 0.002014 0.035291 -0.999582 0.012471 -0.026077
-0.012533 0.048947 -0.003935 -0.203183 0.979046 -0.013622
-0.044800 -0.023016 -0.022093 -0.879032 -0.475804 0.030229
0.011657 0.048795 0.045018 0.264481 0.964391 0.000561
0.035609 -0.033146 -0.030299 0.729706 -0.683756 -0.002575
-0.048713 0.016371 -0.036006 -0.941637 0.331979 -0.055764
-0.012734 0.050446 0.062339 -0.184958 0.982619 -0.015835
0.026066 0.028457 0.063421 0.791240 0.513992 -0.331289
-0.050280 0.010437 0.047935 -0.981367 0.192133 -0.002081
-0.006758 0.044639 -0.070591 -0.048687 0.183809 -0.981755
0.044879 0.018950 0.025674 0.927896 0.372644 -0.012071
-0.001094 0.050479 0.014634 0.017125 0.996509 -0.081713
-0.042172 -0.013951 0.065095 0.494507 0.215915 0.841929
-0.009990 0.049937 -0.070705 -0.300868 0.941325 0.152924
0.044614 -0.002865 -0.069891 -0.198302 -0.001949 -0.980139
0.030285 -0.037602 -0.020572 0.600651 -0.796442 -0.069996
-0.048050 0.019168 -0.070552 -0.810208 0.360215 0.462394
0.045931 0.015547 0.020748 0.958478 0.285148 0.003230
-0.015953 -0.047962 0.059101 -0.271978 -0.936919 -0.219568
-0.039564 0.029189 -0.070389 0.502737 -0.400658 -0.765982
-0.009476 -0.049330 -0.058906 -0.089717 -0.994426 0.055384
-0.009524 0.006422 0.063927 -0.061118 0.049167 0.996919
0.034766 -0.033719 -0.005678 0.737029 -0.673429 0.057286
-0.004820 -0.034669 -0.070488 -0.021061 -0.128553 -0.991479
-0.047902 0.018613 -0.016885 -0.931809 0.362949 0.000966
-0.048088 0.018165 -0.051325 -0.936625 0.350291 0.005428
0.020465 0.045298 -0.030646 0.442771 0.896619 0.005283
-0.048585 -0.014930 -0.006305 -0.947160 -0.295559 0.124633
-0.005806 -0.037424 0.063950 0.027925 -0.234563 0.971700
-0.046684 0.021682 0.016164 -0.917662 0.396198 -0.030375
-0.010243 -0.013036 -0.069533 -0.001582 -0.002739 -0.999995
0.000975 -0.049506 -0.048510 0.048045 -0.998841 0.002919
-0.029531 -0.037448 -0.070130 0.258312 0.349107 -0.900777
-0.049852 0.012448 0.043634 -0.975031 0.222066 -0.001035
0.027796 0.017409 0.063309 -0.085002 -0.085130 0.992737
-0.010096 -0.033139 -0.070596 -0.011798 -0.112883 -0.993538
-0.030621 0.040782 0.030583 -0.581291 0.813582 0.013616
-0.021420 -0.037768 -0.070994 -0.096940 -0.141922 -0.985120
0.020658 -0.003747 0.063585 -0.014414 -0.004231 -0.999887
0.047473 0.007329 -0.022146 0.988609 0.148873 0.022112
-0.040400 -0.030855 -0.067453 -0.804668 -0.593561 0.013973
0.016148 0.000803 0.063401 -0.353123 0.158118 0.922119
-0.013451 -0.049204 0.061921 -0.216382 -0.970153 -0.109459
-0.008930 0.042070 0.063210 0.092232 -0.493890 0.864619
-0.024715 0.041895 0.064819 0.116279 -0.183119 0.976190
0.018393 0.045932 -0.040542 0.398613 0.916866 0.021553
-0.051031 -0.003710 -0.014920 -0.997679 -0.067709 0.007237
-0.050280 0.010437 0.047935 -0.981367 0.192133 -0.002081
-0.014678 -0.021359 0.064294 -0.040423 -0.011609 0.999115
-0.018433 -0.046492 -0.000178 -0.341985 -0.937898 -0.058255
-0.021532 -0.045123 0.004848 -0.412196 -0.911052 -0.008891
-0.025335 -0.009728 -0.069736 0.015269 0.001943 -0.999882
-0.044972 -0.007555 0.065189 0.173721 0.052452 0.983397
-0.030348 0.041227 0.005598 -0.588608 0.808315 -0.012974
-0.041099 -0.031809 0.063978 -0.742189 -0.638778 0.202779
0.028098 -0.015845 0.063268 -0.126823 0.991356 -0.033617
0.031133 0.010265 0.063404 -0.134967 0.967516 -0.213769
-0.008241 -0.049006 -0.024764 -0.132385 -0.987731 0.082836
-0.030671 -0.039508 0.012021 -0.577972 -0.812191 0.079339
0.017346 0.000802 0.063401 -0.102974 -0.116011 0.987896
0.034636 0.034913 0.016605 0.727507 0.683400 -0.060809
0.043679 0.016010 -0.070250 -0.531235 -0.186652 -0.826408
-0.041197 -0.006781 -0.070774 0.211550 0.007758 -0.977336
0.028810 0.012173 0.063462 0.900402 0.434989 0.007733
-0.050914 -0.005829 0.034425 -0.990794 -0.128819 -0.041623
0.042180 -0.023875 0.007426 0.873794 -0.485886 -0.019963
-0.030621 0.040782 0.030583 -0.581291 0.813582 0.013616
0.028810 0.012173 0.063462 0.900402 0.434989 0.007733
-0.040031 -0.031084 0.027873 -0.782897 -0.618683 0.065608
0.038742 -0.028906 -0.038270 0.809306 -0.585424 -0.047984
-0.027393 0.042897 0.066141 -0.114395 0.229806 0.966490
-0.032378 -0.038626 0.000773 -0.607132 -0.794207 -0.025018
0.033377 0.012252 0.063395 -0.076048 -0.192063 0.978432
0.006964 -0.048856 0.017461 0.173821 -0.983694 -0.046178
0.013056 -0.048657 0.063369 0.251181 -0.955601 0.154062
0.012740 -0.027809 0.064196 0.014496 -0.006384 0.999875
0.032747 0.007470 0.064243 0.018179 -0.005295 0.999821
-0.036351 -0.032280 -0.070175 0.344617 0.347326 -0.872126
-0.040855 -0.029614 0.029297 -0.829579 -0.553154 0.076280
0.033323 0.013215 0.063472 0.073554 0.014901 0.997180
0.017050 0.034441 0.062973 0.129849 0.191502 0.972865
-0.039903 -0.030442 -0.003680 -0.775898 -0.630594 -0.018261
-0.044472 -0.021390 0.065934 0.209165 0.155517 0.965435
-0.009881 -0.013517 0.064194 -0.010529 -0.036804 0.999267
-0.028395 0.034112 0.064369 0.201884 -0.186370 0.961514
0.045314 0.004423 0.064989 -0.107104 0.043794 0.993283
0.019341 -0.044652 -0.003118 0.427539 -0.902790 -0.046704
-0.049284 -0.013498 0.021850 -0.959309 -0.282284 -0.006442
-0.050769 -0.003111 -0.020766 -0.994156 -0.099582 -0.041689
-0.006652 -0.049397 -0.055759 -0.060826 -0.997547 0.034640
0.038657 0.005498 -0.071122 -0.160019 -0.027541 -0.986730
0.020417 -0.009637 0.063261 -0.098286 -0.106993 0.989390
0.041697 0.025378 0.016501 0.868633 0.489819 -0.074522
0.012823 -0.017890 -0.069646 -0.035478 0.039481 -0.998590
-0.003974 0.015845 0.063645 0.104021 -0.680682 -0.725157
0.010392 0.009391 -0.069594 -0.002766 0.009851 -0.999948
0.007602 -0.028265 0.064123 0.007462 -0.035919 0.999327
-0.022118 0.045664 -0.004264 -0.419617 0.907625 -0.011769
0.015795 -0.011198 0.063588 0.552444 0.798440 -0.239373
0.031785 -0.015997 0.063035 -0.031712 0.013898 0.999400
0.017434 -0.045543 0.030582 0.378332 -0.923853 0.057973
-0.034097 -0.037204 -0.018586 -0.650141 -0.755349 -0.082253
0.028517 -0.011226 0.064014 -0.030507 -0.116241 0.992752
0.011074 0.029236 -0.070212 -0.067828 -0.210557 -0.975226
-0.004802 -0.039409 0.063269 0.131487 0.007570 0.991289
0.038803 0.029642 0.003352 0.810681 0.585486 0.001809
0.038729 0.032382 0.063194 0.774701 0.619932 0.124590
-0.030286 -0.025097 0.063731 -0.291635 -0.349679 0.890322
0.032648 -0.036033 -0.053944 0.672652 -0.739952 0.003123
0.031909 0.012249 0.063392 -0.252929 -0.944371 -0.210215
0.039386 -0.028354 0.007241 0.815857 -0.578168 0.009947
0.024306 0.043481 0.026628 0.513856 0.857366 0.029595
-0.050285 -0.010204 -0.067972 -0.980404 -0.196748 0.009908
-0.049220 -0.013576 0.056035 -0.962280 -0.271823 -0.011360
0.024728 -0.015619 0.063472 -0.048310 0.015395 -0.998714
-0.042172 -0.013951 0.065095 0.494507 0.215915 0.841929
0.048466 0.000836 0.055662 0.999618 0.016987 -0.021792
-0.029335 -0.040422 -0.023084 -0.572212 -0.815114 0.090352
-0.041197 -0.006781 -0.070774 0.211550 0.007758 -0.977336
0.025391 0.018482 0.063535 0.342518 -0.103343 0.933810
0.038852 -0.029165 0.000395 0.804171 -0.594007 -0.021563
0.016827 -0.011294 0.063610 -0.067953 0.456828 -0.886956
0.018176 -0.008156 0.063644 0.085076 0.996184 0.019471
0.011182 0.038115 0.062818 0.082337 0.077807 0.993563
0.001097 -0.049526 -0.058913 0.069426 -0.997572 -0.005420
0.038569 -0.029467 -0.056655 0.799295 -0.600897 -0.007079
-0.001733 -0.043459 -0.070694 0.006512 -0.204470 -0.978851
-0.005422 0.002700 -0.069658 -0.025289 -0.006021 -0.999662
-0.032574 0.021403 -0.069843 0.057434 -0.046034 -0.997287
0.043312 -0.021751 -0.059335 0.900136 -0.435601 0.002665
-0.041233 -0.029330 -0.069633 -0.823850 -0.548208 0.144013
-0.050836 -0.007279 -0.060616 -0.989922 -0.140566 -0.017200
0.032438 0.038857 0.062486 0.650208 0.759513 0.019236
0.016359 0.047279 0.036356 0.368964 0.929392 0.009812
-0.036454 -0.034553 -0.040321 -0.714296 -0.697831 0.053039
-0.004104 0.015666 0.063589 0.567400 0.783623 -0.252966
0.018361 0.000856 0.063538 -0.563679 -0.820749 -0.092938
-0.008311 0.003213 0.064219 -0.044092 0.032176 0.998509
-0.044608 0.025447 -0.061400 -0.865061 0.501666 0.001271
-0.023295 -0.044243 0.008516 -0.448338 -0.892244 0.053788
-0.037186 -0.034193 0.022353 -0.726301 -0.687335 -0.007593
-0.042063 0.029525 0.006597 -0.805955 0.591968 -0.003141
0.026868 0.028512 -0.070977 -0.105022 -0.164523 -0.980766
0.018799 -0.035211 -0.071084 -0.049315 0.152195 -0.987119
-0.037538 0.034709 -0.037602 -0.726158 0.685862 -0.047842
0.002251 -0.049363 -0.053289 0.078375 -0.996793 0.016152
0.001812 0.050126 0.014738 0.079334 0.996150 -0.037303
0.047856 -0.003363 -0.003717 0.998509 -0.054418 -0.004266
-0.021121 -0.045309 -0.006991 -0.398314 -0.910196 0.113533
-0.043852 -0.025626 0.066171 -0.309666 -0.169409 0.935632
-0.044629 -0.024358 -0.028226 -0.874578 -0.484835 -0.006876
0.026341 0.000250 -0.069823 -0.020917 0.017961 -0.999620
0.045925 0.009485 0.065329 -0.142094 -0.077828 0.986789
-0.012374 -0.045356 0.065313 -0.041670 0.134989 0.989971
0.002281 -0.049091 -0.003869 0.050265 -0.998698 -0.008649
-0.046343 -0.021283 -0.057866 -0.898962 -0.437995 0.005182
-0.029287 -0.026566 0.063310 -0.903367 -0.408797 -0.129663
0.025334 -0.012942 0.063605 0.204167 0.024404 0.978632
0.013722 -0.010669 0.063603 0.785666 0.579891 -0.215535
-0.035871 -0.035564 0.034798 -0.685878 -0.721917 -0.091691
0.008248 -0.048604 0.005427 0.214373 -0.976716 -0.008363
0.003908 -0.031736 0.064208 -0.000282 -0.026767 0.999642
0.044135 0.020725 0.037596 0.918153 0.396224 0.001325
0.011397 0.046219 0.065167 0.015858 -0.292594 0.956105
0.034766 -0.033719 -0.005678 0.737029 -0.673429 0.057286
-0.025442 -0.043269 0.020191 -0.460563 -0.887627 0.000308
-0.050176 0.009878 -0.021269 -0.981654 0.190235 -0.012868
0.013063 -0.031518 -0.070569 0.075297 -0.105467 -0.991568
0.001221 -0.049526 -0.010422 0.053981 -0.998533 0.004115
-0.006837 0.050485 -0.054289 -0.156901 0.987506 0.014593
0.038706 0.004052 0.063563 0.018526 -0.099480 0.994867
0.043237 0.022524 0.024605 0.905315 0.423301 -0.034944
-0.045357 -0.023199 0.000434 -0.881560 -0.469924 -0.044979
-0.028209 -0.026594 0.063359 0.076068 0.869221 0.488537
0.025753 -0.041566 -0.034578 0.539692 -0.840876 -0.040742
-0.035224 0.037219 -0.034976 -0.694690 0.719240 -0.010024
0.003091 -0.015777 -0.069617 0.025246 -0.031768 -0.999176
-0.019241 -0.046046 0.019675 -0.374755 -0.927119 0.003118
-0.050213 -0.010204 -0.031044 -0.977707 -0.209076 0.019371
0.020236 -0.042814 -0.070476 -0.293646 0.641061 -0.709093
-0.000743 -0.049081 -0.020506 0.003223 -0.995033 -0.099492
-0.044556 0.000580 -0.071038 -0.155628 -0.010634 -0.987759
0.020268 -0.002512 0.063596 -0.062182 -0.016305 -0.997932
-0.016576 0.009266 -0.069516 -0.026925 0.011860 -0.999567
0.023924 -0.034021 -0.071134 0.054587 -0.136164 -0.989181
-0.049103 -0.014527 -0.064291 -0.949734 -0.313056 0.000366
0.026216 -0.011324 0.063913 -0.457487 -0.741693 0.490508
-0.044238 0.026351 0.035827 -0.856735 0.515345 -0.020622
-0.004808 0.050417 0.051776 -0.074707 0.997198 -0.003734
-0.040336 0.031732 -0.009753 -0.781993 0.623050 -0.017179
-0.028156 -0.025609 0.063510 -0.923159 -0.384417 -0.001159
0.027934 -0.012560 0.063628 -0.218067 -0.240063 0.945947
0.034478 0.034620 -0.023668 0.720298 0.686981 0.096069
-0.043122 0.027641 -0.026786 -0.818153 0.574955 -0.007203
0.040606 -0.026483 -0.028942 0.846057 -0.533076 0.004169
-0.020131 0.046655 0.015008 -0.383025 0.922053 -0.055762
0.042406 -0.023155 0.030146 0.884493 -0.465078 0.037086
-0.022937 0.044626 0.066025 -0.077221 -0.133204 0.988076
0.048316 -0.011495 0.064169 0.925048 -0.235325 0.298175
-0.049879 -0.011884 -0.065745 -0.968306 -0.249732 -0.004105
-0.002947 0.050580 -0.025549 -0.032456 0.997237 0.066825
-0.033256 0.039045 -0.035037 -0.652616 0.757633 -0.009193
-0.019040 0.047101 -0.019828 -0.362646 0.929095 -0.072599
-0.050906 -0.006322 -0.008714 -0.989784 -0.137156 0.038924
-0.038780 -0.018877 0.063713 0.473251 0.227619 0.851013
0.007096 0.049919 -0.017466 0.183928 0.982199 -0.038165
0.024306 0.043481 0.026628 0.513856 0.857366 0.029595
0.047368 -0.009624 -0.051334 0.981465 -0.191643 0.000483
0.036981 -0.031495 -0.010981 0.770848 -0.636619 -0.022574
-0.003472 -0.049466 -0.073334 0.117159 -0.157153 -0.980600
0.023635 0.012153 0.064164 -0.011785 -0.031182 0.999444
-0.043544 -0.026078 -0.001132 -0.834151 -0.543207 -0.095488
-0.038965 -0.032217 0.005822 -0.754897 -0.655755 -0.010733
-0.034114 -0.037229 0.040908 -0.653485 -0.756935 -0.002458
-0.010601 -0.017035 -0.069505 -0.001159 -0.007607 -0.999970
0.017547 -0.002870 0.063222 0.091520 0.072965 0.993127
-0.034709 -0.036847 -0.054845 -0.665434 -0.746457 -0.000839
0.003298 -0.048831 0.014310 0.077307 -0.995166 -0.060567
-0.004184 0.050308 0.010976 -0.076166 0.986521 0.144825
0.002188 0.002051 -0.069820 0.008560 -0.032228 -0.999444
0.048317 0.002502 0.022983 0.998973 0.041298 -0.018662
0.002985 0.050767 -0.049422 0.091750 0.995436 0.026250
-0.048287 -0.016972 -0.067430 -0.933961 -0.354668 0.043907
0.024428 -0.009820 0.063473 0.586083 -0.565595 0.580180
-0.007081 0.050275 -0.070564 -0.031848 0.993825 0.106289
0.012508 0.048470 -0.031569 0.296390 0.955067 0.000318
0.017079 -0.001405 0.064180 -0.003894 -0.006206 0.999973
-0.009649 0.049901 0.019795 -0.169341 0.985556 0.001422
0.034922 0.014039 0.063572 0.131133 0.449835 0.883432
0.002757 0.050464 0.020499 0.081051 0.996599 -0.014865
0.015608 -0.006690 0.063791 0.341791 0.939470 -0.023994
0.046857 0.012307 0.005082 0.974761 0.222707 -0.015546
0.024107 -0.043527 -0.071867 0.570711 -0.803112 -0.171172
0.037692 -0.030518 0.054878 0.791821 -0.610101 -0.028213
-0.022955 0.045640 -0.009113 -0.445685 0.894713 0.029195
-0.050561 -0.007443 0.029064 -0.985338 -0.161877 0.053901
0.016052 0.047120 -0.068234 0.346629 0.937936 -0.011195
0.036524 0.033063 0.052825 0.757806 0.652470 0.003520
-0.043624 0.024930 -0.072990 0.443501 -0.326782 -0.834578
0.037069 -0.031355 0.033896 0.769908 -0.637824 -0.020547
0.010535 -0.029166 0.064166 -0.011367 -0.069004 0.997552
0.034847 0.014112 -0.070400 -0.185331 -0.079331 -0.979469
-0.023995 0.045080 0.023521 -0.447901 0.894046 -0.008183
-0.041262 -0.029596 -0.056613 -0.796890 -0.604120 0.002323
-0.047743 -0.018074 -0.007446 -0.921399 -0.377521 0.092211
0.014026 0.001009 0.063623 0.007084 0.128664 -0.991663
-0.031742 -0.039410 0.052952 -0.612397 -0.790494 -0.009457
-0.045151 -0.023422 0.034364 -0.871256 -0.486575 -0.064490
-0.014661 -0.046570 -0.072088 0.118447 0.722352 -0.681306
-0.002933 -0.037922 0.063543 -0.256482 -0.816775 -0.516813
0.022060 0.008444 -0.069800 -0.046462 -0.025757 -0.998588
-0.020131 0.046655 0.015008 -0.383025 0.922053 -0.055762
-0.041935 0.029675 0.057230 -0.794216 0.596678 -0.114877
-0.043442 0.027419 -0.017037 -0.838883 0.543447 -0.030678
-0.022078 -0.032088 0.063980 -0.128765 -0.090118 0.987572
0.008976 -0.048398 -0.028969 0.209384 -0.977786 -0.009668
-0.048811 0.016219 0.024725 -0.950557 0.310308 -0.012256
0.041946 0.012164 -0.070161 0.174876 0.016853 -0.984446
-0.033973 0.038395 0.041144 -0.657512 0.753443 0.001154
0.025981 -0.038602 -0.070553 -0.375139 0.507389 -0.775775
-0.040456 0.031292 -0.053058 -0.768458 0.639899 0.001332
0.020264 -0.012467 0.063250 0.001220 0.071217 0.997460
0.025641 -0.041535 -0.030654 0.541223 -0.840851 0.006852
-0.029824 0.041563 -0.044151 -0.565232 0.824795 0.015059
0.006108 -0.020497 -0.069476 -0.031891 0.049661 -0.998257
-0.051299 -0.000846 0.037336 -0.999657 -0.026079 -0.002273
0.020716 -0.005407 0.063571 -0.014676 -0.009247 -0.999850
0.003715 -0.048808 -0.022329 0.106896 -0.991580 0.073090
0.035613 -0.033173 -0.052057 0.733446 -0.679704 -0.007713
0.034746 0.034935 0.056101 0.704001 0.707183 -0.065382
0.045051 0.018457 -0.070185 0.953843 0.289849 0.078561
-0.042167 0.029145 -0.068412 -0.791415 0.600692 0.113277
-0.032083 0.010015 -0.070413 0.189117 -0.049089 -0.980727
-0.009505 -0.048806 0.016680 -0.158089 -0.984608 -0.074531
0.013740 -0.005802 0.063871 0.528120 0.849147 0.006266
-0.013953 -0.047802 0.008144 -0.253970 -0.966429 0.038908
-0.044729 0.025260 -0.013788 -0.867391 0.497624 -0.001871
0.001367 -0.047933 -0.071908 -0.106852 0.714943 -0.690969
-0.007197 -0.015418 -0.069502 -0.005392 -0.003933 -0.999978
-0.048981 -0.014390 -0.025292 -0.943150 -0.326063 0.064434
0.037683 -0.030753 0.008583 0.788626 -0.614377 0.024686
0.034001 -0.034770 -0.057976 0.702404 -0.711750 0.006348
-0.035317 0.036943 -0.067518 -0.694037 0.719506 0.024981
-0.009953 -0.043121 -0.070578 -0.002278 -0.188049 -0.982157
-0.007226 -0.028965 -0.069660 0.007725 0.156810 -0.987599
-0.006930 0.034306 0.063959 -0.017350 0.031672 0.999348
-0.051177 -0.000813 0.066096 -0.478691 0.075484 0.874732
-0.039243 0.032998 -0.013609 -0.757415 0.652918 -0.004505
0.023735 -0.042480 0.012008 0.507330 -0.860602 0.044498
0.034689 0.005214 0.063967 0.033145 -0.071619 0.996881
-0.023632 -0.044363 -0.043862 -0.444830 -0.895105 0.030241
0.029190 -0.014685 0.063290 0.549698 -0.423788 0.719886
0.001219 -0.037909 0.064112 0.043915 -0.055880 0.997471
0.048090 0.005817 0.024049 0.992937 0.116819 -0.020722
-0.007291 -0.049171 -0.017830 -0.112584 -0.991354 -0.067392
-0.012587 0.048878 -0.021472 -0.255446 0.965915 -0.041894
-0.015024 0.021334 -0.069785 0.015589 -0.044359 -0.998894
0.000361 0.050290 0.012573 0.051206 0.997548 0.047705
0.010890 0.048877 -0.013799 0.259186 0.965779 -0.009682
-0.013206 -0.048077 0.025106 -0.237381 -0.971415 -0.001752
0.037435 -0.030700 -0.040551 0.779481 -0.624799 0.045119
0.008897 -0.036868 0.063959 -0.090951 -0.272697 0.957791
0.024891 0.037770 0.065096 -0.001748 0.054924 0.998489
0.002788 0.050657 -0.045419 0.072275 0.996224 0.048098
0.043885 0.020861 -0.013950 0.912268 0.409594 -0.000009
-0.022741 -0.010237 0.064143 -0.019978 -0.010409 0.999746
0.019011 -0.045139 0.025308 0.405682 -0.913939 -0.011765
0.000482 -0.043961 -0.070460 0.006133 -0.221271 -0.975193
-0.045716 -0.023728 -0.073154 -0.502846 -0.201713 -0.840511
0.027958 0.041958 -0.072662 0.501941 0.767091 -0.399532
-0.049920 0.011959 0.032821 -0.974849 0.222486 -0.013045
0.035167 0.007826 -0.069780 -0.038802 -0.010420 -0.999193
0.026375 -0.013602 0.063652 0.538610 0.379479 0.752260
0.015768 0.003245 -0.069588 0.003212 -0.004006 -0.999987
0.023891 0.043405 -0.052128 0.508411 0.861113 -0.001293
0.002757 0.050464 0.020499 0.081051 0.996599 -0.014865
-0.002155 0.050237 -0.041060 -0.022078 0.996987 0.074357
-0.002567 -0.049380 0.010387 -0.038327 -0.993922 0.103203
-0.011101 -0.048738 -0.043595 -0.184262 -0.979967 0.075574
0.041164 -0.014743 0.065108 -0.137734 0.063209 0.988450
-0.004333 -0.012059 -0.069620 -0.003913 -0.011146 -0.999930
-0.018618 -0.038027 0.063898 0.232559 0.530119 0.815408
0.014990 0.000746 0.063627 0.038791 0.055198 -0.997722
-0.049103 -0.014527 -0.064291 -0.949734 -0.313056 0.000366
0.016614 0.001094 0.063440 -0.051247 0.827605 0.558967
0.008976 -0.032642 -0.070571 0.037511 -0.153303 -0.987467
0.030664 -0.011013 0.063437 -0.852307 -0.517231 -0.077754
-0.038394 0.033857 -0.062906 -0.759151 0.650621 -0.019555
-0.032323 0.039661 -0.032132 -0.635318 0.771394 0.036365
0.027402 0.013365 0.063443 0.586518 0.809773 0.016258
0.015722 0.047241 -0.055013 0.355509 0.934609 0.010976
-0.049262 0.013941 0.012267 -0.961552 0.272559 0.033607
0.032055 0.037257 -0.014929 0.672931 0.739680 0.006149
-0.030021 0.001214 0.064088 -0.052873 -0.000503 0.998601
-0.045751 0.025552 0.061844 -0.868884 0.492837 -0.046405
-0.015786 -0.047753 -0.054714 -0.350735 -0.936320 0.017060
0.041402 -0.025277 -0.051539 0.856046 -0.516898 -0.001538
-0.038353 -0.033175 0.035698 -0.740318 -0.669524 -0.060561
-0.002536 -0.049348 0.034061 -0.028939 -0.998172 -0.053054
0.036745 -0.028021 -0.070630 -0.624281 0.424777 -0.655620
-0.046691 0.017171 -0.070070 0.639212 -0.190893 -0.744962
-0.006928 0.049779 -0.022716 -0.112783 0.993560 0.010923
-0.039879 0.031941 -0.063989 -0.772700 0.634450 -0.020187
-0.010667 -0.031362 0.064123 -0.006311 -0.009229 0.999937
0.047862 -0.006349 -0.032066 0.993544 -0.113252 0.006722
0.021608 -0.012457 0.063348 -0.897106 -0.357564 0.259516
0.022156 0.017651 0.063562 0.124286 0.106540 -0.986510
0.007330 -0.041381 -0.071116 0.064664 -0.176623 -0.982152
0.012914 -0.007405 0.063094 0.035231 -0.036610 0.998708
0.043695 -0.020610 -0.005905 0.899870 -0.429625 0.075205
0.021640 0.014855 0.064265 -0.010574 -0.011421 0.999879
-0.051410 0.003211 -0.044911 -0.998467 0.055292 -0.002711
0.045678 0.017001 0.051494 0.942545 0.334037 -0.005222
0.014944 0.017204 0.064181 -0.009440 -0.007140 0.999930
-0.011769 -0.048404 0.037625 -0.203472 -0.979071 -0.004427
-0.044175 0.021250 0.064944 0.294680 -0.117515 0.948343
0.003957 -0.049032 0.048174 0.102507 -0.994732 -0.000886
-0.035086 -0.015243 -0.069846 0.052782 0.012125 -0.998532
-0.021833 -0.036798 0.064162 0.258985 0.423294 0.868187
0.019887 0.037942 -0.071030 0.073598 0.134005 -0.988244
0.041334 -0.007864 -0.071016 0.211706 -0.036669 -0.976645
-0.000616 -0.049524 -0.027403 0.016221 -0.999863 -0.003368
0.031616 -0.016296 0.063606 0.296690 0.954707 -0.022577
-0.025649 0.044057 -0.046204 -0.489838 0.871810 0.002490
0.032895 -0.035792 -0.051736 0.676183 -0.736733 0.000816
0.028383 -0.036998 -0.070620 -0.427665 0.561959 -0.708029
0.006945 -0.048767 -0.042325 0.172707 -0.982558 0.068930
-0.024324 -0.030630 0.063820 0.581948 0.170939 0.795057
-0.015042 -0.047659 -0.014840 -0.262099 -0.964723 -0.024784
-0.050791 -0.006819 0.008313 -0.992177 -0.121969 0.026597
-0.009990 0.049937 -0.070705 -0.300868 0.941325 0.152924
0.024097 -0.013868 0.063325 0.786650 -0.617365 0.006492
-0.039856 0.032109 -0.049695 -0.768540 0.639765 -0.006820
0.005099 0.050010 -0.010907 0.155287 0.987680 0.019336
0.017358 -0.011337 0.063426 0.235465 0.938782 0.251485
0.018130 -0.005014 0.063290 0.132634 0.140776 0.981117
0.004486 -0.049187 -0.032145 0.118751 -0.992874 0.010009
0.035112 0.034343 -0.026956 0.734816 0.677727 0.027045
-0.052432 -0.004094 0.064158 -0.965597 -0.111327 0.235006
0.037363 -0.016213 0.064257 -0.439063 0.249415 0.863143
-0.025393 -0.022580 0.063910 -0.009911 0.037530 0.999246
-0.013403 0.049101 -0.032268 -0.239357 0.970745 0.019038
-0.029745 0.041682 -0.011342 -0.570654 0.821086 -0.013126
-0.047135 0.017574 -0.073003 0.483331 -0.217217 -0.848061
0.027336 0.027640 0.063237 0.727583 0.660893 0.183966
0.004421 0.036893 0.064022 0.002172 0.092326 0.995726
0.001693 0.051008 -0.071573 -0.048325 0.923862 -0.379663
-0.030432 -0.040252 -0.054747 -0.584947 -0.811071 0.000520
0.030971 0.038687 -0.073118 0.373956 0.199835 -0.905662
0.010477 -0.048104 0.000996 0.233972 -0.972105 -0.016408
-0.006456 0.050101 -0.073581 0.106170 0.231201 -0.967096
0.019351 0.045974 0.044945 0.415878 0.909412 -0.003839
0.003743 0.026362 0.063946 0.028959 0.000377 0.999581
-0.012804 0.016785 -0.069417 0.003109 -0.013632 -0.999902
0.018978 -0.045064 0.037086 0.408098 -0.912790 0.016429
0.038775 -0.030327 0.059481 0.738197 -0.588363 -0.329991
0.049388 0.004245 0.060130 0.956925 0.101148 -0.272147
-0.044953 0.024932 0.057016 -0.872720 0.475708 -0.109825
-0.050309 0.013749 -0.071038 -0.924787 0.256592 0.280944
0.046600 0.012995 -0.024314 0.964742 0.251970 0.076050
0.030186 -0.025681 0.063498 -0.126417 0.275720 0.952889
0.008722 0.046048 -0.069919 0.049395 -0.270181 -0.961542
-0.015663 -0.043624 0.065323 0.064370 -0.003923 0.997918
-0.007833 0.036892 0.063861 -0.017539 0.065633 0.997690
0.009923 -0.048305 0.009647 0.216025 -0.974420 0.061960
0.038554 -0.029502 0.036763 0.796407 -0.604750 0.003582
-0.029996 -0.026712 0.063460 -0.880202 -0.354923 -0.315079
-0.035436 -0.036023 0.025067 -0.687670 -0.725975 -0.008369
0.038012 -0.029950 0.030246 0.794681 -0.606636 0.021817
-0.018236 -0.046604 -0.032520 -0.340524 -0.939820 0.027962
-0.033473 -0.037170 0.014330 -0.649806 -0.757130 -0.067125
-0.015848 0.048479 -0.010065 -0.277722 0.960650 0.004778
-0.003920 0.042645 0.063452 -0.046571 -0.658796 0.750879
0.024369 0.042982 -0.068873 0.524756 0.850831 0.026796
0.023363 -0.004188 0.064232 0.011001 -0.006880 0.999916
-0.051356 0.000457 -0.037488 -0.999665 0.001249 -0.025842
-0.001867 0.050652 0.020505 -0.014267 0.999815 0.012933
-0.043769 0.028488 0.060641 -0.822473 0.536571 -0.188759
0.022477 -0.042514 0.066161 0.034936 -0.021611 0.999156
-0.000920 -0.029309 0.064140 0.005672 -0.007294 0.999957
0.000798 0.041340 0.062754 0.001746 -0.214343 0.976757
0.040833 0.027104 0.034977 0.845866 0.532611 -0.028920
0.006610 0.049903 0.033633 0.148678 0.985156 -0.085810
-0.043527 -0.002805 0.063482 0.337665 0.093670 0.936594
-0.051293 0.002327 0.045196 -0.999748 0.021925 0.004749
0.048049 -0.006035 0.050342 0.991800 -0.127774 -0.002743
0.032522 0.012264 0.063404 0.273042 -0.954717 0.118165
0.003189 0.050281 -0.024355 0.095467 0.988587 0.116537
0.029734 -0.038591 -0.030981 0.620136 -0.784328 0.016150
-0.051390 0.004208 -0.070129 -0.968955 0.059524 0.239966
-0.034566 -0.035633 -0.072748 0.356147 0.440454 -0.824111
0.002149 0.051629 0.064201 -0.062262 0.942196 0.329225
0.033318 -0.035551 -0.007877 0.696037 -0.715828 0.055882
-0.007924 0.024943 -0.069748 -0.003504 -0.045557 -0.998956
0.002173 -0.049411 -0.027747 0.064648 -0.997881 -0.007315
-0.050076 0.011656 0.053528 -0.978222 0.207509 0.004619
-0.026928 0.044856 0.061106 -0.445792 0.868480 -0.216823
-0.020215 0.046495 -0.070199 -0.323512 0.930639 0.171031
-0.026969 -0.036123 -0.070306 -0.059439 -0.120587 -0.990922
-0.032516 0.039433 -0.057254 -0.640677 0.767804 -0.002976
-0.008078 -0.049027 0.008805 -0.163225 -0.984531 0.063685
0.030170 0.039270 0.024668 0.628037 0.778108 -0.010872
0.030173 0.038828 -0.016118 0.637019 0.770680 0.016117
-0.040561 -0.030456 -0.043715 -0.785091 -0.617092 0.053194
0.046324 -0.017712 0.064841 0.847065 -0.359089 0.391837
0.032413 -0.038087 0.063783 0.623666 -0.759328 0.185639
-0.028184 0.020623 0.063821 -0.023981 0.009542 0.999667
-0.014640 -0.047682 -0.000596 -0.269912 -0.960367 -0.069593
-0.037743 0.033619 -0.073296 0.310967 -0.250761 -0.916743
0.015071 -0.047324 0.065798 0.157038 -0.610776 0.776075
0.024654 0.042762 0.030932 0.510835 0.859668 -0.004414
0.041805 -0.024551 -0.041563 0.874193 -0.482371 0.055725
0.033830 -0.034923 0.022160 0.707665 -0.706525 -0.005643
-0.005609 -0.049366 -0.045591 -0.067250 -0.997700 -0.008505
-0.036933 0.023467 0.063755 0.367765 -0.174965 0.913311
0.042980 0.020179 -0.072851 -0.599582 -0.168237 -0.782431
-0.025755 -0.017618 -0.069702 0.112765 0.078062 -0.990551
0.029489 -0.038878 0.009384 0.619987 -0.783979 0.031507
0.030011 0.011276 0.063261 -0.126800 -0.530617 0.838074
0.023880 0.043369 0.004012 0.517510 0.855671 -0.003178
