0.025341 -0.067623 -0.109198 0.122965 0.015321 -0.992293
-0.010558 0.076577 0.062610 0.052382 0.994783 0.087537
-0.006410 0.062842 -0.110763 -0.025462 0.017019 -0.999531
0.029649 0.036191 -0.106914 0.544898 0.000243 -0.838502
-0.033429 -0.049011 -0.101961 -0.966447 0.005147 -0.256815
-0.026162 -0.070240 0.101062 0.012160 0.027731 0.999541
-0.033922 -0.061628 0.096543 -0.996807 0.008547 0.079390
-0.033646 0.070067 -0.091631 -0.991337 0.131102 0.007957
0.030226 -0.050301 0.077016 0.994774 -0.054699 -0.086212
-0.032976 0.078359 0.096486 -0.784029 0.619942 0.031155
0.024084 0.066614 -0.107648 0.216455 0.009459 -0.976247
0.028845 0.038079 -0.007462 0.993661 -0.002685 0.112384
-0.002438 -0.041215 0.101388 0.022381 -0.001779 0.999748
0.028987 -0.048152 0.062397 0.992927 -0.054612 -0.105421
-0.024246 0.080114 0.096859 -0.027077 0.999454 0.018918
-0.023882 0.078875 -0.075280 0.053859 0.998535 0.005175
-0.013873 -0.024486 -0.111323 -0.030420 -0.004773 -0.999526
0.023841 -0.081716 0.090122 0.206145 -0.978466 0.010408
0.008748 -0.082702 0.039675 -0.028926 -0.998808 0.039315
0.006171 0.071440 -0.110632 0.196059 0.241861 -0.950297
0.024795 0.077718 -0.036666 0.108249 0.993974 -0.017238
0.027743 -0.028893 -0.005779 0.991044 -0.014101 0.132790
0.027533 -0.081571 -0.014013 0.775375 -0.631440 0.008789
0.013337 -0.082038 -0.010398 -0.016502 -0.999455 -0.028604
0.013337 -0.082038 -0.010398 -0.016502 -0.999455 -0.028604
0.031620 0.052704 -0.059008 0.992065 0.116044 0.048378
-0.034875 -0.022093 0.051133 -0.999415 0.004860 0.033846
-0.035836 0.037671 -0.072605 -0.998762 0.044432 0.022348
-0.035615 0.027220 -0.021812 -0.999364 0.033639 0.011804
0.002820 0.078486 -0.090959 0.047939 0.998830 0.006349
0.033326 -0.036849 -0.100318 0.932376 0.007102 -0.361419
-0.016611 0.078097 0.046347 0.029656 0.998853 0.037600
0.028182 0.073750 -0.012343 0.995258 0.097235 0.002454
-0.033614 -0.060798 -0.099409 -0.996827 -0.028785 -0.074209
0.021561 0.037709 0.100497 0.045325 0.008807 0.998933
-0.028160 0.078942 -0.013195 -0.039401 0.998973 -0.022375
-0.034874 0.001023 -0.097710 -0.984232 -0.014606 -0.176277
-0.004032 0.047636 0.101195 0.031531 0.020652 0.999289
0.026687 -0.018935 0.004306 0.991671 -0.014722 0.127951
0.009792 0.020450 -0.110600 0.176499 -0.013113 -0.984213
-0.018742 -0.081966 0.028530 -0.047168 -0.998886 0.001386
-0.034506 0.028374 0.068334 -0.999801 -0.008964 0.017796
-0.036212 0.003984 -0.029482 -0.999853 0.014868 0.008552
0.027942 0.022875 -0.001178 0.992298 -0.015189 0.122942
0.032905 0.027821 -0.056057 0.998315 0.031035 0.049035
0.005549 0.017334 0.101040 0.022596 0.002191 0.999742
0.022360 0.032303 0.100492 0.041562 0.006783 0.999113
0.034867 -0.000349 -0.097074 0.967104 -0.019790 -0.253610
0.029945 0.062121 0.080343 0.971029 0.238314 0.017577
0.033691 -0.054945 -0.093846 0.991875 -0.102961 0.074726
0.027442 -0.075387 0.072954 0.991462 -0.127418 -0.027712
-0.032710 -0.021362 -0.104246 -0.946577 -0.014526 -0.322149
0.032615 0.039696 0.087074 0.993406 -0.014241 0.113763
0.028585 -0.078527 -0.059540 0.982710 -0.185129 0.002744
-0.034823 -0.056704 0.050674 -0.999652 -0.021144 0.015782
-0.033963 0.072573 0.077714 -0.999862 0.016621 0.000128
-0.033459 0.067442 -0.061794 -0.996668 0.078495 -0.022146
-0.025267 0.078950 -0.053481 0.097914 0.995185 0.004361
0.029615 0.059799 0.059725 0.993086 0.010643 -0.116902
0.029936 0.026385 -0.106551 0.729305 0.006696 -0.684156
0.002490 0.078336 -0.017285 0.015863 0.999873 0.001451
-0.035293 -0.013949 0.035743 -0.999702 0.005288 0.023846
0.027169 0.062243 0.041179 0.997346 -0.017301 -0.070728
-0.022923 -0.080990 -0.038567 0.004589 -0.999839 -0.017328
0.033178 0.007050 -0.053309 0.996942 0.001134 0.078131
0.032272 0.004648 0.082093 0.997250 -0.034531 0.065572
-0.033119 -0.068465 -0.099091 -0.994517 -0.087847 -0.056728
0.027079 0.072148 0.025329 0.998686 -0.051240 -0.001100
0.027525 -0.058773 -0.006218 0.995378 0.003757 0.095964
-0.009115 0.078383 0.038619 0.024937 0.999079 0.034928
0.026275 -0.015109 0.036130 0.994414 -0.002273 -0.105525
0.031498 -0.040234 -0.043719 0.995943 -0.052602 0.073015
-0.010391 -0.082231 0.077667 -0.016103 -0.998742 -0.047486
0.015331 -0.082913 0.038464 -0.006259 -0.998689 0.050808
0.032747 -0.056731 -0.101862 0.926213 0.006175 -0.376949
-0.035420 0.033803 -0.036364 -0.999211 0.032001 0.023532
0.014919 0.065993 -0.109364 0.113959 0.008827 -0.993446
0.029187 -0.035760 0.094563 0.902791 -0.003366 0.430066
0.026066 -0.053565 0.037588 0.995275 -0.012464 -0.096294
-0.034606 -0.057674 -0.055060 -0.995445 -0.095083 -0.006901
0.032502 0.048693 0.079665 0.997054 0.021491 -0.073631
-0.020981 0.078790 0.024376 -0.009285 0.999857 0.014167
0.028638 0.015270 0.096524 0.867917 -0.008002 0.496645
0.028946 -0.033738 -0.015078 0.991886 -0.014703 0.126274
0.002203 -0.082376 0.004473 -0.029717 -0.998593 -0.043910
0.031060 0.012066 0.068967 0.989197 -0.010988 -0.146182
-0.034461 -0.038791 0.071375 -0.999674 0.010301 0.023377
-0.035975 0.025342 -0.049930 -0.999437 0.030955 0.012926
0.017113 0.077704 -0.105556 0.123361 0.988241 -0.090344
0.031860 -0.053446 -0.066001 0.992394 -0.106417 0.061888
-0.008718 -0.082187 0.047726 -0.008498 -0.999811 0.017509
-0.035517 0.019967 0.012294 -0.999849 0.013228 0.011258
0.025099 0.006415 -0.108263 0.169157 0.017431 -0.985435
-0.014760 0.078038 0.042040 -0.005771 0.998313 0.057767
0.028904 0.024220 -0.008923 0.992396 -0.015773 0.122071
0.018855 -0.068442 -0.109895 0.091229 0.009839 -0.995781
0.029083 -0.052830 -0.020214 0.996106 -0.024834 0.084595
-0.034826 0.035069 0.050982 -0.999812 0.013520 0.013926
-0.034398 -0.025039 0.066749 -0.999315 0.006919 0.036354
-0.036026 -0.009093 -0.082943 -0.999847 -0.002847 -0.017231
-0.022524 -0.081759 0.025021 -0.045343 -0.998946 -0.007200
0.028747 -0.040937 -0.014361 0.992815 -0.017895 0.118313
0.027303 0.058060 0.043523 0.992819 -0.000584 -0.119624
-0.019274 -0.042411 0.100732 0.036005 -0.003662 0.999345
-0.008196 -0.006970 0.101484 0.023184 -0.003932 0.999723
-0.033150 -0.073558 -0.064221 -0.996331 -0.084585 -0.012998
0.026813 0.063156 0.019741 0.999016 -0.028013 0.034378
0.032759 0.027523 -0.051853 0.997926 0.033957 0.054695
0.031482 0.031026 -0.034664 0.997146 0.021270 0.072440
0.031432 -0.011099 0.075348 0.994365 -0.034497 -0.100241
-0.025067 -0.081123 -0.018495 -0.007668 -0.999899 -0.011936
0.019646 -0.083023 0.035027 0.021631 -0.998280 0.054483
0.027571 0.009422 -0.000184 0.993123 -0.009464 0.116695
-0.034982 -0.007852 0.044049 -0.999629 0.004367 0.026892
-0.036262 -0.022008 -0.048811 -0.999327 -0.036035 0.006925
0.030259 -0.001558 -0.022686 0.993386 -0.010819 0.114308
-0.023936 0.077289 0.099179 0.028664 0.352657 0.935314
0.013721 0.075819 0.099137 -0.003799 0.449741 0.893151
0.025609 -0.027237 0.029007 0.996702 -0.007724 -0.080774
-0.034427 -0.040669 0.074983 -0.999709 0.011350 0.021291
-0.026945 0.079337 -0.018087 0.024891 0.999689 0.001716
0.029419 0.011910 0.094994 0.851732 -0.028203 0.523218
0.004039 -0.031528 0.101240 0.021470 -0.004340 0.999760
-0.034013 0.061017 -0.039865 -0.999061 0.042573 0.008095
0.025150 -0.055036 0.020711 0.999842 -0.017622 0.002126
-0.034524 -0.049171 -0.092380 -0.998517 -0.034647 -0.041994
-0.025294 -0.052574 -0.110597 -0.085018 -0.010428 -0.996325
-0.032378 0.078041 -0.084813 -0.798724 0.597826 0.068144
0.022834 -0.009918 0.100742 0.049543 -0.013432 0.998682
-0.020380 -0.055657 -0.110943 -0.074811 -0.005284 -0.997184
-0.015617 -0.040862 -0.111293 -0.039345 -0.003096 -0.999221
0.029156 -0.030227 0.060228 0.992542 -0.011383 -0.121374
0.006431 -0.039389 -0.111447 0.056271 -0.010399 -0.998361
0.013373 0.077256 0.048322 0.056597 0.992150 0.111514
0.002042 0.078343 -0.032773 0.019695 0.999798 -0.004048
-0.031912 0.031674 -0.108041 -0.785440 -0.068606 -0.615124
-0.015137 -0.081646 -0.004505 -0.037571 -0.998598 -0.037297
-0.034369 0.052778 -0.009403 -0.998326 0.057827 0.000729
-0.035818 -0.017819 0.015550 -0.999878 -0.000741 0.015603
-0.034441 0.030287 -0.100850 -0.954663 -0.000943 -0.297687
0.032720 0.030353 -0.052884 0.998597 0.011695 0.051645
-0.034473 0.052611 -0.034751 -0.998240 0.058675 -0.008585
-0.033109 0.071487 -0.042715 -0.995013 0.096613 0.024805
-0.034787 -0.061278 -0.006114 -0.998176 -0.059843 -0.008020
0.020371 0.077554 -0.080459 0.067158 0.997022 0.037897
0.035289 0.011224 -0.090868 0.999983 0.004389 0.003799
0.008748 -0.082702 0.039675 -0.028926 -0.998808 0.039315
-0.035158 -0.035511 0.047132 -0.999709 -0.004051 0.023793
0.027782 0.032556 0.001238 0.992148 -0.011337 0.124551
-0.036140 0.005227 -0.024514 -0.999780 0.016629 0.012762
-0.017297 -0.007583 0.100894 0.036898 0.000000 0.999319
-0.033794 0.060646 -0.103812 -0.947662 -0.018554 -0.318735
-0.034524 -0.049171 -0.092380 -0.998517 -0.034647 -0.041994
-0.001071 -0.076399 -0.110572 0.051427 -0.250521 -0.966744
-0.027147 0.078174 0.056056 0.075518 0.996206 0.043252
-0.034900 0.038714 0.040248 -0.999785 0.018759 0.008826
-0.032548 0.078498 -0.040180 -0.721479 0.692433 -0.002051
-0.029999 -0.081321 0.017015 -0.136896 -0.990494 -0.013432
0.014682 0.077533 0.091719 0.105850 0.953405 -0.282513
0.027893 0.051344 0.001194 0.995375 -0.000796 0.096062
0.033460 0.048245 -0.088354 0.992845 0.099719 0.065691
0.027748 0.047660 0.002851 0.995900 -0.015597 0.089106
0.029089 -0.002728 -0.013282 0.991893 -0.013420 0.126362
-0.014279 -0.081299 -0.025865 -0.022238 -0.999696 -0.010641
-0.034728 0.046663 0.001774 -0.998930 0.046252 -0.000268
-0.034554 -0.063096 0.073719 -0.999824 0.009803 0.016021
-0.015405 -0.081820 0.005441 -0.038877 -0.998952 -0.024160
0.028559 -0.070771 -0.026576 0.997001 -0.063009 0.044923
-0.013982 0.026151 -0.111203 -0.046919 0.040774 -0.998066
0.031199 -0.006952 0.090043 0.976473 -0.022361 0.214475
-0.031432 -0.081645 0.098678 -0.028625 -0.957050 0.288507
-0.035024 0.041174 -0.012226 -0.999290 0.037655 0.001068
0.027348 -0.030106 -0.002614 0.992606 -0.011460 0.120837
0.000435 -0.007100 0.101309 0.021716 0.000160 0.999764
0.005447 0.026734 -0.111391 -0.018998 0.018908 -0.999641
-0.013607 0.076327 0.069613 0.068801 0.997627 0.002480
0.028267 0.073505 -0.035564 0.991185 0.130987 0.019844
-0.035221 0.048550 -0.096186 -0.995793 0.005014 -0.091493
-0.034480 -0.078402 0.052467 -0.984404 -0.175920 0.000129
-0.034566 -0.003340 0.056003 -0.999430 0.011410 0.031765
0.023567 0.077775 -0.020510 0.006235 0.999952 -0.007556
0.002138 0.044117 0.101061 0.036074 0.016145 0.999219
0.026644 -0.005385 0.005080 0.995020 -0.014586 0.098602
0.013408 0.078150 -0.001990 0.024751 0.999685 -0.004177
0.022101 -0.028412 -0.109090 0.128283 0.011427 -0.991672
-0.008033 0.078623 0.018955 0.005645 0.999979 -0.003182
0.028813 0.055296 -0.007910 0.996437 0.013921 0.083184
-0.002279 0.076332 0.061498 0.028020 0.994694 0.098991
-0.034218 -0.079706 0.031611 -0.865503 -0.500899 -0.002221
-0.034730 -0.061472 -0.012514 -0.998137 -0.060563 -0.007436
0.027893 -0.017654 0.048298 0.994854 -0.009089 -0.100913
-0.009977 0.078481 0.089728 0.038144 0.971654 -0.233310
-0.032250 0.041921 0.101239 -0.580281 0.001751 0.814415
-0.036011 -0.035002 -0.030743 -0.999694 -0.024533 0.003297
0.025707 0.029105 -0.107836 0.192155 0.015802 -0.981237
0.029923 -0.079964 -0.108101 0.859429 -0.433182 -0.271542
-0.036081 -0.032868 -0.034916 -0.999911 -0.012118 -0.005610
0.004128 0.000820 0.101199 0.024571 0.006058 0.999680
-0.005889 0.076887 0.056303 0.031763 0.995374 0.090670
0.001341 0.075622 0.067858 0.019273 0.996733 0.078432
-0.029657 0.079149 -0.105904 -0.225241 0.966122 0.125999
0.028730 0.076218 -0.099032 0.779382 0.626262 -0.018999
-0.017714 0.006117 0.100936 0.046110 0.011110 0.998875
0.009520 -0.083230 0.018257 -0.047223 -0.998474 -0.028643
-0.032044 -0.020085 0.101331 -0.535025 0.034367 0.844137
0.023164 0.077418 -0.065946 0.001185 0.999964 -0.008373
0.017757 -0.082388 0.048598 0.007426 -0.998820 0.047985
-0.022459 -0.082054 0.087710 -0.017566 -0.999844 -0.001908
-0.022614 0.023134 -0.110782 -0.119259 0.021738 -0.992625
-0.003771 -0.081290 -0.072870 -0.001892 -0.999995 -0.002473
0.026783 -0.022963 0.003314 0.992167 0.000860 0.124919
0.027001 -0.070443 0.051701 0.997556 -0.034944 -0.060503
-0.034653 0.049052 -0.036798 -0.998657 0.050615 -0.011025
-0.023447 -0.061374 0.100818 0.055215 0.004836 0.998463
-0.010391 -0.082231 0.077667 -0.016103 -0.998742 -0.047486
0.033330 -0.054762 -0.100409 0.955317 -0.000775 -0.295582
-0.018040 0.061262 0.100499 0.021473 0.007511 0.999741
-0.002507 0.056970 -0.110839 -0.010572 0.018150 -0.999779
-0.004908 -0.006226 -0.111382 -0.008423 -0.001552 -0.999963
0.001341 0.075622 0.067858 0.019273 0.996733 0.078432
0.031472 0.005321 -0.033422 0.995144 -0.008058 0.098098
0.025429 -0.062865 0.026592 0.998236 0.032300 -0.049818
0.032522 0.016437 0.079876 0.997919 -0.019280 -0.061525
0.028296 0.075830 -0.104111 0.833583 0.539198 0.120017
-0.034791 -0.059082 0.052835 -0.999758 -0.003237 0.021777
-0.015397 0.076603 0.065789 0.096267 0.994492 0.041464
-0.033196 -0.059530 -0.103666 -0.966754 0.048561 -0.251053
0.030955 -0.062336 -0.070006 0.994554 -0.089856 0.052803
-0.036282 0.017439 -0.073777 -0.999872 -0.013374 -0.008728
0.025568 -0.077491 0.100471 0.520561 0.056687 0.851940
-0.036257 0.018546 -0.083308 -0.999234 0.014405 -0.036376
0.015707 -0.023901 0.100896 0.027764 0.010332 0.999561
-0.034570 0.015175 0.059519 -0.999518 -0.009668 0.029485
0.029957 0.041283 0.060317 0.994428 -0.026479 -0.102040
0.030378 0.023464 0.064751 0.983996 -0.030577 -0.175547
-0.030208 -0.010965 -0.109632 -0.575760 -0.000508 -0.817618
-0.034871 -0.046981 -0.083501 -0.998410 -0.033092 -0.045636
0.016126 -0.042389 -0.109920 0.084128 0.006181 -0.996436
-0.034307 0.018035 0.071118 -0.999614 -0.018101 0.021076
-0.014830 -0.054185 -0.111270 -0.031227 -0.004512 -0.999502
-0.011378 0.078618 0.030034 0.011301 0.999908 0.007530
0.025083 0.027553 0.100381 0.191255 -0.027493 0.981155
0.030848 -0.026215 0.073596 0.994151 -0.032410 -0.103020
0.014468 -0.067333 0.100825 0.029998 0.018538 0.999378
-0.035766 0.036108 -0.091629 -0.998186 0.008932 -0.059543
0.028094 -0.009084 0.050388 0.990948 -0.067621 -0.115975
0.013222 -0.081592 -0.093449 0.017401 -0.999831 0.005999
0.029812 0.015206 -0.106796 0.685059 0.067795 -0.725326
0.024578 0.032907 0.100437 0.086688 0.020780 0.996019
-0.035702 0.022386 -0.016429 -0.999712 0.022311 0.008840
-0.033982 -0.031190 0.087802 -0.999528 0.013854 0.027412
-0.016615 -0.081873 0.010234 -0.044676 -0.998843 -0.017803
0.032136 0.037803 0.074772 0.993707 -0.005686 -0.111867
-0.036355 -0.013650 -0.035200 -0.999983 -0.005877 0.000547
0.029386 0.039352 0.056774 0.984731 -0.019155 -0.173028
0.013331 -0.048346 -0.110179 0.152515 0.003330 -0.988296
0.015373 0.010265 -0.109793 0.108503 0.009542 -0.994050
-0.034078 0.061917 0.019628 -0.998739 0.049757 -0.006658
-0.034642 -0.062404 0.063481 -0.999660 -0.015145 0.021219
-0.027978 -0.055565 -0.110488 -0.221822 0.007171 -0.975061
-0.032470 0.005718 0.101327 -0.658179 -0.007303 0.752826
0.033904 0.041792 -0.087309 0.993712 0.084551 0.073398
0.001661 0.078466 0.016051 0.016122 0.999850 -0.006255
0.027218 0.075611 0.088785 0.504878 0.840877 -0.194999
0.031914 -0.003816 0.078116 0.994424 -0.037650 -0.098502
-0.010943 -0.044985 -0.111303 -0.008290 -0.001283 -0.999965
-0.034868 0.060627 -0.095452 -0.996709 0.081052 -0.001183
0.034387 0.023908 -0.077472 0.997314 0.031842 0.065958
-0.034114 0.058005 -0.028070 -0.997157 0.075347 0.001108
-0.031662 -0.038076 -0.107054 -0.921163 0.026154 -0.388298
-0.034967 -0.017603 -0.094043 -0.987726 -0.049358 -0.148192
-0.032685 0.078236 -0.048193 -0.768564 0.639773 -0.000177
-0.033278 0.041076 0.097356 -0.980630 -0.010024 0.195611
0.005677 0.078268 -0.037244 0.022850 0.999731 -0.004077
-0.013842 -0.037246 -0.111325 -0.026070 0.001017 -0.999660
-0.035300 0.014731 0.028902 -0.999795 0.001456 0.020177
-0.034223 0.057157 -0.042739 -0.998639 0.052038 -0.003473
0.030031 0.052643 -0.024134 0.997904 0.031507 0.056528
0.028946 -0.033738 -0.015078 0.991886 -0.014703 0.126274
-0.034893 -0.059660 0.050109 -0.999942 -0.007696 0.007593
-0.029525 -0.027796 0.101431 -0.058890 -0.022403 0.998013
0.032090 -0.012077 0.080381 0.998654 0.009637 -0.050966
-0.003320 0.075495 0.072574 0.035774 0.997718 0.057256
0.028588 0.072781 -0.045089 0.985677 0.167373 0.020673
0.016509 0.048506 -0.109488 0.153889 -0.002769 -0.988084
0.016580 -0.020378 -0.109726 0.110168 0.007154 -0.993887
0.015410 -0.081772 0.068007 0.036094 -0.999348 -0.000279
-0.034672 -0.043848 -0.092951 -0.996136 -0.041572 -0.077364
0.030778 -0.022578 0.090964 0.968821 -0.030827 0.245835
0.008827 0.078229 -0.005673 0.021183 0.999773 -0.002231
0.012359 -0.035409 0.100987 0.040332 -0.005402 0.999172
-0.034587 0.012676 -0.099761 -0.972682 -0.006984 -0.232036
0.034114 0.030202 -0.077096 0.998048 0.043484 0.044827
-0.018849 -0.080985 -0.066831 -0.015029 -0.999886 0.001603
0.002415 -0.020932 0.101227 0.021521 -0.002012 0.999766
-0.034794 -0.044241 0.060782 -0.999778 0.006030 0.020203
0.031554 -0.060152 -0.076963 0.987664 -0.140043 0.070059
0.031022 -0.037702 0.078979 0.995753 -0.038219 -0.083763
0.003678 0.078285 -0.042620 0.021889 0.999744 -0.005743
-0.036091 0.029496 -0.072450 -0.999487 0.029179 0.013185
-0.033687 0.030767 0.094063 -0.991229 -0.015151 0.131282
0.008764 -0.082211 0.095059 0.007069 -0.989898 0.141601
-0.033905 0.064439 0.015670 -0.998552 0.053713 -0.003117
-0.033756 -0.000470 0.082054 -0.999724 -0.005852 0.022734
-0.032773 0.014263 0.100033 -0.830584 -0.010505 0.556794
-0.033109 0.071487 -0.042715 -0.995013 0.096613 0.024805
0.026954 -0.032352 0.000536 0.994121 -0.001764 0.108256
-0.010751 0.078686 -0.083388 0.020074 0.999793 -0.003250
0.028693 0.074966 -0.066641 0.956745 0.289115 0.032436
-0.035050 -0.047887 0.047487 -0.999800 -0.006168 0.019012
-0.001568 -0.081463 -0.032740 -0.017476 -0.999826 -0.006468
0.005280 -0.081647 -0.027336 -0.015243 -0.999854 -0.007705
0.014018 -0.031388 -0.110054 0.128837 0.012668 -0.991585
-0.013489 -0.082097 0.093186 -0.012909 -0.995743 0.091266
-0.030066 -0.081446 -0.107785 -0.447098 -0.893811 -0.034725
0.029484 0.003798 0.059371 0.984272 -0.008663 -0.176450
-0.033706 -0.079807 0.013702 -0.870673 -0.491050 0.028269
-0.032496 0.077621 -0.103891 -0.821559 0.570091 0.006033
-0.030734 0.078725 0.045637 -0.127057 0.990791 -0.046786
-0.030643 0.023337 -0.108729 -0.617657 -0.035778 -0.785633
0.031171 -0.059909 -0.071411 0.990141 -0.120913 0.070721
-0.032883 0.078382 -0.024760 -0.727704 0.685055 -0.033863
0.030399 -0.052773 -0.038426 0.995848 -0.070297 0.057842
0.032608 0.027306 0.083446 0.998760 -0.004603 0.049577
0.025267 -0.029186 0.016337 0.999000 0.019638 0.040170
-0.004341 -0.032632 -0.111397 0.010107 0.005161 -0.999936
-0.029758 0.022312 0.101493 -0.109186 0.001393 0.994020
-0.018459 0.078799 -0.022771 -0.002251 0.999789 0.020426
-0.034144 0.060843 0.015775 -0.998581 0.053142 -0.003572
0.027723 0.049067 0.046723 0.989441 0.002169 -0.144918
-0.026117 0.077977 0.099376 0.113466 0.234720 0.965418
0.020953 0.024880 -0.108851 0.183031 0.010324 -0.983053
0.031645 0.060699 0.092893 0.981886 0.040448 0.185105
-0.033669 0.072521 -0.105155 -0.982935 0.114344 -0.144097
0.003787 -0.081607 -0.102953 -0.016013 -0.999872 -0.000120
0.029239 0.051538 -0.012491 0.996402 0.022864 0.081613
-0.008432 -0.081754 0.097185 -0.016486 -0.983355 0.180946
-0.008698 0.076705 0.060066 0.054999 0.994920 0.084316
0.028904 0.025376 0.054290 0.986117 0.005798 -0.165953
0.028531 0.070118 -0.019640 0.997863 0.065334 -0.000239
0.027458 0.029310 0.044754 0.991220 -0.005268 -0.132114
0.015711 -0.006882 -0.109776 0.127606 0.001716 -0.991823
0.024426 0.077509 -0.057842 0.055979 0.998381 -0.010084
0.027967 -0.069987 0.096493 0.881835 0.048589 0.469047
0.027209 0.043327 0.042188 0.993253 0.002568 -0.115939
0.001661 0.078466 0.016051 0.016122 0.999850 -0.006255
-0.017194 -0.081203 -0.029719 -0.020892 -0.999772 -0.004517
-0.020724 -0.082002 0.061556 -0.021329 -0.999690 -0.012809
-0.019990 0.009915 0.101027 0.048527 0.002628 0.998818
-0.035264 -0.026526 0.037691 -0.999603 -0.000290 0.028191
-0.034484 -0.062137 0.081071 -0.999623 0.002958 0.027299
-0.035560 0.034777 -0.038631 -0.998685 0.050199 0.010432
-0.033334 0.014009 0.094666 -0.995821 -0.024087 0.088090
0.023944 0.076611 0.072085 -0.021621 0.997043 0.073744
0.034563 -0.031102 -0.079757 0.999498 -0.020082 0.024516
-0.022178 -0.080960 -0.066552 -0.023892 -0.999678 0.008538
0.012782 -0.083472 0.023833 -0.026846 -0.999238 0.028336
0.026012 -0.081472 0.079733 0.565525 -0.824013 0.034402
0.031198 -0.027077 0.087222 0.992692 -0.005723 0.120542
-0.013522 0.078029 0.051004 0.020909 0.989327 0.144207
0.029089 -0.002728 -0.013282 0.991893 -0.013420 0.126362
0.028578 -0.006561 -0.009721 0.991646 -0.013342 0.128299
0.025785 -0.070213 0.032685 0.998218 0.016963 -0.057209
0.027161 0.072230 0.019904 0.997728 -0.066599 0.010175
0.023022 -0.082083 -0.009989 0.024515 -0.999693 0.003502
-0.020018 -0.037371 -0.110883 -0.081193 0.000561 -0.996698
-0.033276 -0.066909 -0.090151 -0.996322 -0.085452 0.006373
0.011940 0.056971 0.100635 0.026370 0.004931 0.999640
0.028060 -0.026874 0.051522 0.993191 -0.012220 -0.115854
-0.034781 0.046429 -0.099446 -0.980565 -0.002392 -0.196180
0.012549 -0.081546 -0.077288 -0.005509 -0.999984 -0.001046
0.030464 -0.055194 0.082318 0.992231 -0.088402 -0.087537
-0.035437 -0.019606 -0.090932 -0.993449 -0.019325 -0.112629
0.026053 0.029926 0.029521 0.999351 -0.005957 -0.035537
0.026475 0.036095 0.100260 0.450971 -0.012882 0.892446
0.028578 -0.006561 -0.009721 0.991646 -0.013342 0.128299
0.026089 0.070198 -0.107133 0.255020 0.013389 -0.966843
0.018966 -0.039263 0.100891 0.026457 -0.003791 0.999643
-0.033664 -0.058860 0.099755 -0.892243 -0.010584 0.451431
-0.007124 -0.081462 -0.029877 -0.018947 -0.999775 -0.009567
-0.034034 -0.079960 0.048641 -0.899746 -0.434876 -0.036611
0.004803 0.079911 0.096593 0.019511 0.987417 0.156930
-0.009901 -0.077024 0.101616 -0.035615 -0.499833 0.865389
0.018194 0.037016 0.100629 0.028285 0.010363 0.999546
-0.032773 0.014263 0.100033 -0.830584 -0.010505 0.556794
-0.000969 0.067546 -0.110601 0.001911 -0.002786 -0.999994
0.029072 0.018114 0.095702 0.861664 -0.004223 0.507462
0.026678 0.010159 0.038720 0.993353 -0.000615 -0.115108
0.028439 -0.011190 -0.009119 0.991158 -0.014278 0.131919
-0.015990 0.028289 0.100680 0.024259 0.002982 0.999701
-0.035846 -0.021994 0.010050 -0.999900 -0.005159 0.013188
-0.032993 0.072135 -0.068188 -0.994432 0.103905 -0.017547
0.000454 -0.081326 -0.074874 0.000368 -0.999970 0.007706
-0.036107 -0.029903 -0.032254 -0.999916 -0.012537 -0.003252
0.032760 0.046705 -0.073227 0.994146 0.096568 0.048451
-0.032947 0.075264 -0.057482 -0.991295 0.127028 -0.034600
0.027961 -0.072414 -0.013765 0.997790 -0.033277 0.057522
0.023762 -0.069336 0.100462 0.146773 0.022494 0.988914
0.022831 -0.081439 -0.080913 0.014667 -0.999890 -0.002066
-0.020579 0.077027 0.068356 0.089881 0.995804 0.017215
0.030946 0.050164 -0.043454 0.996557 0.069394 0.045379
-0.015208 -0.081136 -0.058885 -0.029493 -0.999402 0.018076
0.034124 -0.025410 -0.071715 0.998805 -0.025557 0.041653
0.026314 -0.014847 0.007495 0.990190 -0.026106 0.137265
-0.034782 -0.001760 -0.098345 -0.981739 -0.013128 -0.189778
0.027546 0.040924 0.003713 0.993785 -0.009644 0.110901
0.013325 -0.082169 0.090805 0.037282 -0.999078 -0.021286
0.033104 -0.054908 -0.087306 0.988017 -0.130560 0.082316
0.027159 0.077238 0.032372 0.770384 0.636440 0.038125
0.033655 -0.027632 -0.099412 0.926593 -0.015355 -0.375752
-0.035418 0.020627 0.018893 -0.999910 0.010560 0.008316
-0.027147 0.078174 0.056056 0.075518 0.996206 0.043252
-0.005578 0.023467 0.101450 -0.082292 -0.075120 0.993773
-0.006845 0.078730 -0.096393 0.014483 0.999880 0.005567
-0.034571 -0.063509 -0.016575 -0.998026 -0.059873 -0.018954
0.029215 -0.057695 0.070412 0.995056 -0.069914 -0.070532
0.025462 0.076973 0.068215 0.242695 0.969945 0.017469
0.031617 0.015399 -0.103940 0.852755 0.003914 -0.522297
-0.001593 -0.060943 -0.111327 0.000224 -0.003363 -0.999994
-0.034097 0.062623 0.025430 -0.998798 0.048164 -0.009093
-0.035896 -0.027048 -0.071944 -0.999431 -0.028710 -0.017696
-0.012460 -0.081194 -0.073539 -0.019294 -0.999794 0.006352
-0.036230 -0.009908 -0.018675 -0.999923 -0.000050 0.012433
-0.033266 -0.076681 -0.039386 -0.992039 -0.121567 -0.032869
0.026052 -0.034911 0.006680 0.992415 -0.008618 0.122628
-0.036336 0.004345 -0.048307 -0.999935 0.009362 0.006572
-0.013657 0.079134 -0.106906 0.052387 0.994651 0.089020
-0.033827 0.063137 -0.046499 -0.999556 0.029180 0.005975
0.028715 0.045006 0.053030 0.977134 -0.046293 -0.207523
0.013988 0.077903 -0.080288 0.046347 0.998848 0.012428
-0.036229 -0.011765 -0.070544 -0.999935 -0.005324 0.010098
0.027011 0.077525 -0.105991 0.443731 0.827797 -0.343301
-0.006948 -0.081457 -0.056891 -0.027086 -0.999592 -0.009093
-0.018046 -0.016704 -0.111112 -0.043160 0.020004 -0.998868
0.035289 0.011224 -0.090868 0.999983 0.004389 0.003799
-0.034016 0.018221 0.085612 -0.999053 -0.030457 0.031058
0.018120 0.014995 0.100732 0.031973 0.004107 0.999480
-0.035128 0.032510 0.026686 -0.999702 0.021980 0.010617
-0.013157 -0.082240 0.072052 0.008880 -0.999957 0.002772
0.002490 0.078336 -0.017285 0.015863 0.999873 0.001451
0.025717 0.076308 0.084868 0.124586 0.976025 0.178476
-0.035016 0.041574 -0.043632 -0.997113 0.066931 0.035855
-0.030551 -0.081514 0.025074 -0.206587 -0.978348 -0.012496
0.032745 -0.055770 -0.083790 0.989642 -0.124846 0.070868
-0.002417 -0.082213 0.070175 0.011325 -0.999925 0.004702
0.027191 0.060136 0.041937 0.995630 -0.021907 -0.090780
-0.027736 -0.081386 0.006660 -0.080705 -0.996645 -0.013632
0.031017 0.057078 0.068780 0.987945 0.132149 -0.080630
0.032804 0.043979 -0.068750 0.995922 0.078002 0.045336
0.005840 0.040816 0.100958 0.030853 0.005928 0.999506
0.002203 -0.082376 0.004473 -0.029717 -0.998593 -0.043910
0.025545 -0.043973 0.011579 0.996082 -0.003491 0.088367
0.030955 -0.059981 -0.064157 0.993742 -0.109493 0.022108
0.024600 0.076526 0.078940 -0.088125 0.994911 0.048857
0.029321 0.051032 0.056608 0.987352 0.037537 -0.154037
0.030317 0.050883 -0.028862 0.998484 0.032821 0.044183
0.034044 0.013876 -0.066436 0.997242 0.024785 0.069952
-0.034789 0.051026 -0.058349 -0.997220 0.073379 0.012952
-0.013650 -0.081248 -0.031730 -0.025206 -0.999600 -0.012826
-0.003206 0.078467 -0.086649 0.024045 0.999516 0.019754
0.025886 -0.059688 0.008123 0.993701 -0.001591 0.112056
-0.035183 -0.049695 0.032020 -0.999681 -0.022326 0.011845
0.021647 0.077739 -0.003776 0.001292 0.999962 -0.008614
0.028637 -0.065591 -0.021555 0.996450 -0.055621 0.063198
0.003040 -0.082185 0.069845 0.018350 -0.999823 -0.004146
-0.035479 0.038709 -0.054222 -0.998687 0.050263 0.009937
0.005990 -0.081570 -0.037218 -0.009865 -0.999886 -0.011444
-0.028023 0.079458 -0.107705 -0.008045 0.945774 -0.324727
0.020711 0.077254 0.092811 0.114850 0.975253 -0.188920
0.027340 -0.045177 0.047341 0.992409 -0.022947 -0.120818
0.027053 0.075958 0.074716 0.704051 0.710010 -0.014106
-0.033830 -0.053664 -0.099695 -0.992022 -0.032451 -0.121818
0.028600 -0.044789 -0.013763 0.993392 -0.019595 0.113085
0.027899 -0.038889 -0.007172 0.991837 -0.011867 0.126956
-0.016571 -0.030954 0.100716 -0.001335 -0.008963 0.999959
0.030817 -0.011343 0.070021 0.992386 -0.025021 -0.120595
-0.035818 -0.017819 0.015550 -0.999878 -0.000741 0.015603
0.016958 -0.082621 0.002892 -0.003993 -0.997903 -0.064600
0.005412 0.025588 0.101002 0.021970 0.002303 0.999756
0.034834 -0.018689 -0.082695 0.998776 -0.022667 0.043957
0.028278 0.073499 -0.027241 0.993050 0.117407 -0.008222
0.003387 -0.073264 0.101457 0.044100 0.037968 0.998305
0.032211 0.011274 0.084972 0.992986 -0.037692 0.112062
0.033064 0.056078 -0.097250 0.987639 0.123131 0.096997
0.031245 0.056259 0.075719 0.976048 0.215753 -0.027931
-0.014926 -0.041461 0.100690 -0.116610 0.014508 0.993072
0.024841 -0.083270 0.020268 0.595007 -0.803659 0.009954
-0.019990 0.009915 0.101027 0.048527 0.002628 0.998818
0.028181 0.044529 0.098277 0.826540 -0.002767 0.562871
0.010317 0.065222 -0.109756 0.258807 0.027341 -0.965542
0.027783 0.074968 0.052690 0.928061 0.367990 -0.057322
0.030139 -0.065095 -0.056634 0.991838 -0.120895 0.040527
0.030563 0.035779 0.063930 0.988463 0.002938 -0.151433
-0.020662 0.016456 0.101008 0.045734 0.008042 0.998921
0.027697 0.075834 0.062930 0.838707 0.544581 0.001337
-0.030112 0.078783 0.023020 -0.121812 0.992515 0.008739
-0.034438 0.059966 -0.075517 -0.991901 0.115757 0.052277
-0.004313 0.057122 0.101081 0.033751 0.001549 0.999429
-0.034405 -0.051478 -0.088446 -0.998991 -0.037892 -0.024122
-0.033900 0.062349 -0.060184 -0.997225 0.072679 -0.016125
-0.002209 -0.025643 -0.111480 0.011101 -0.039541 -0.999156
0.026845 0.016074 0.008901 0.995196 -0.015773 0.096624
0.008764 -0.082153 0.057258 0.035852 -0.999346 0.004754
-0.034753 0.046733 0.019887 -0.999300 0.037358 0.001790
0.025273 -0.034907 0.023831 0.999753 -0.016453 -0.014913
0.031602 -0.045392 -0.050263 0.995048 -0.072658 0.067828
-0.034578 -0.075732 0.077522 -0.999923 0.009338 -0.008160
-0.010782 0.022395 -0.111461 -0.019376 0.005664 -0.999796
-0.035169 -0.053900 -0.012067 -0.998514 -0.054307 -0.004528
0.027980 -0.079332 -0.025552 0.983168 -0.177023 0.045206
0.033057 0.003683 -0.051802 0.996918 -0.000480 0.078449
0.031676 0.065996 -0.104215 0.954584 0.169262 -0.245194
0.028340 -0.032905 -0.010217 0.991675 -0.013268 0.128082
0.032267 0.005408 0.078868 0.995059 -0.023679 -0.096422
-0.033608 0.049909 -0.103704 -0.955042 -0.022096 -0.295644
-0.031364 -0.069435 -0.107994 -0.839713 0.017434 -0.542751
0.023790 -0.081938 -0.027361 0.026315 -0.999502 -0.017404
0.027931 0.072272 -0.106547 0.383528 0.022944 -0.923244
-0.000551 -0.082351 0.091809 -0.003443 -0.999394 0.034641
0.029566 -0.010577 -0.107754 0.563793 -0.014562 -0.825788
0.021487 0.073910 -0.108219 0.199763 0.093462 -0.975377
0.029659 -0.069933 -0.060117 0.990442 -0.132335 0.038898
-0.035900 -0.006585 -0.087111 -0.998953 -0.011809 -0.044203
0.007570 0.078190 -0.041926 0.027196 0.999610 -0.006378
0.026203 -0.037324 0.037048 0.996767 -0.007145 -0.080022
0.019414 -0.012686 -0.109316 0.128738 0.008696 -0.991641
-0.014986 -0.082019 0.018031 -0.032828 -0.999394 -0.011566
-0.033189 -0.001666 0.094318 -0.998270 0.006119 0.058482
-0.000895 0.022647 -0.111462 0.002338 -0.007702 -0.999968
0.023609 0.077766 -0.016961 -0.028396 0.999574 -0.006717
0.013228 -0.025077 -0.110062 0.146933 0.015101 -0.989031
0.008979 0.078071 -0.085012 0.035814 0.999354 0.002958
-0.035783 0.033958 -0.089870 -0.999963 0.001348 -0.008483
0.030932 0.006102 -0.105201 0.843276 0.009004 -0.537406
0.028769 -0.030372 -0.013352 0.991947 -0.010319 0.126231
0.026339 -0.001799 0.035692 0.995108 0.007690 -0.098493
0.025714 0.013007 0.021904 0.999784 -0.020085 0.005420
0.027375 0.075648 0.022780 0.996791 0.071971 0.035028
-0.034476 -0.049971 0.077360 -0.999752 0.003699 0.021942
0.025187 -0.053022 0.023291 0.999652 -0.018721 -0.018599
0.028027 0.075870 -0.016572 0.942632 0.329826 0.051578
0.027287 -0.038427 0.046825 0.993108 0.007794 -0.116946
-0.003759 -0.002995 0.101389 0.023926 -0.001038 0.999713
0.016190 0.052635 -0.109405 0.152305 0.022947 -0.988067
0.028271 0.073213 -0.030581 0.995589 0.093080 0.011754
-0.030315 0.001358 -0.109395 -0.605951 0.040617 -0.794464
0.028566 0.066396 -0.009460 0.998233 0.042612 0.041416
-0.002316 0.075953 0.065358 0.031993 0.995335 0.091016
0.031027 0.056425 -0.060594 0.988509 0.145872 0.039651
-0.034883 0.014327 0.048518 -0.999643 -0.002496 0.026598
-0.030762 -0.056922 -0.109184 -0.716766 -0.013739 -0.697178
0.028982 -0.061503 -0.023173 0.996223 -0.054612 0.067515
-0.018341 0.080283 0.097049 -0.014560 0.958945 0.283219
-0.009163 0.045885 -0.110944 -0.026825 0.021520 -0.999408
0.030940 0.047393 -0.105335 0.689094 0.025022 -0.724240
-0.024456 -0.081544 0.007996 -0.040045 -0.999189 -0.004110
0.015047 0.077084 0.050718 -0.027823 0.997890 0.058656
0.032267 0.005408 0.078868 0.995059 -0.023679 -0.096422
0.026936 0.011789 0.006631 0.995028 -0.012464 0.098818
0.010062 -0.082547 0.003608 -0.024476 -0.998322 -0.052485
0.007606 -0.013955 -0.111397 0.156870 -0.029090 -0.987191
-0.019473 0.050879 0.100618 0.036088 0.009361 0.999305
0.026801 0.058840 0.017515 0.998594 -0.024766 0.046871
-0.034490 0.036098 0.073631 -0.999985 -0.002339 0.004962
0.035069 0.027421 -0.094643 0.999250 0.019969 -0.033171
0.016091 -0.081651 -0.108212 -0.015862 -0.949318 -0.313916
0.026737 0.025239 0.039220 0.993106 -0.001788 -0.117209
-0.007448 0.075444 0.077599 0.049735 0.996216 -0.071269
-0.035500 -0.036456 0.024029 -0.999778 -0.014013 0.015724
-0.009557 0.078572 -0.073820 0.025405 0.999677 0.000988
0.025627 0.077688 0.041591 0.259184 0.965604 0.020817
0.029977 0.040702 -0.018446 0.995997 0.015331 0.088062
0.009343 -0.026454 -0.111122 0.195053 0.012373 -0.980715
-0.033147 -0.009650 0.096902 -0.997569 0.014465 0.068162
0.024437 -0.073150 0.100353 0.208226 -0.012985 0.977995
-0.007124 -0.081462 -0.029877 -0.018947 -0.999775 -0.009567
0.010319 -0.032762 0.101147 0.027642 -0.006794 0.999595
0.026245 0.077854 -0.014069 0.374366 0.927281 -0.000185
-0.004269 -0.082299 0.080826 0.031789 -0.999064 -0.029331
-0.015651 0.078666 -0.037247 0.012822 0.999911 0.003610
0.031024 0.004788 -0.029100 0.994318 -0.012594 0.105703
0.033606 0.007375 -0.100201 0.894831 -0.024229 -0.445748
0.016580 -0.020378 -0.109726 0.110168 0.007154 -0.993887
-0.033459 0.067442 -0.061794 -0.996668 0.078495 -0.022146
-0.023222 0.076669 0.078540 0.089285 0.995721 -0.023850
-0.030368 -0.080388 -0.109849 -0.537095 -0.449837 -0.713565
0.034207 -0.017283 -0.068840 0.998434 -0.017201 0.053229
-0.002025 0.078429 -0.081375 0.035554 0.999339 0.007531
-0.034077 -0.035838 0.090123 -0.999123 0.009511 0.040781
-0.032928 0.002505 0.100366 -0.872903 -0.020208 0.487476
0.034203 -0.035935 -0.080881 0.996728 -0.055993 0.058288
0.034354 0.042312 -0.100242 0.967259 0.017513 -0.253187
0.030100 0.060196 -0.037926 0.995997 0.081626 0.036436
-0.019975 -0.082107 0.076976 -0.015761 -0.999558 -0.025188
-0.002449 0.078486 0.006367 0.015022 0.999887 0.000597
-0.022572 0.078447 -0.109013 -0.017801 0.528175 -0.848949
-0.036057 -0.032639 -0.023309 -0.999746 -0.022089 0.004472
-0.022138 0.077184 0.081896 0.131290 0.986373 -0.099149
-0.021435 -0.072637 -0.110912 -0.062968 0.017773 -0.997857
-0.006920 0.075830 0.071121 0.054161 0.993872 0.096362
0.023299 0.077383 -0.093096 0.070008 0.997544 0.002230
0.028460 -0.081122 -0.096531 0.553104 -0.833021 0.012369
0.033130 -0.062879 -0.101312 0.977780 -0.038207 -0.206121
0.027236 -0.047115 -0.002413 0.992100 -0.010379 0.125019
0.029866 -0.052508 -0.108156 0.618620 -0.009581 -0.785632
-0.035305 -0.042158 -0.058589 -0.998706 -0.045051 -0.023577
0.034500 -0.022935 -0.078641 0.998558 -0.023453 0.048282
-0.030929 -0.080535 -0.052918 -0.420718 -0.907103 -0.012665
0.009663 -0.079019 0.101348 -0.032529 -0.537985 0.842326
0.031178 -0.057406 -0.060391 0.993682 -0.107779 0.031296
-0.034557 0.048459 0.060770 -0.999849 0.016346 0.005887
-0.036236 -0.001055 -0.025565 -0.999900 0.009388 0.010592
-0.001584 -0.082124 0.053726 -0.006463 -0.999806 0.018586
0.021280 0.028930 -0.108770 0.193326 0.006138 -0.981115
0.035195 0.000476 -0.088517 0.999849 -0.013406 0.011087
0.031368 -0.001590 0.073165 0.992404 -0.012598 -0.122374
-0.035670 0.015139 0.002571 -0.999844 0.013292 0.011653
-0.012376 0.030625 0.100727 -0.206754 -0.047032 0.977262
-0.036251 -0.013599 -0.074614 -0.999444 -0.012305 -0.031002
-0.013953 0.078727 -0.078108 0.008257 0.999763 0.020130
0.026978 0.051404 0.040427 0.995516 0.001587 -0.094579
-0.002449 0.078486 0.006367 0.015022 0.999887 0.000597
-0.035529 0.035665 -0.044346 -0.996828 0.062855 0.048822
0.015222 -0.082096 0.084243 0.030474 -0.999504 -0.007944
0.032348 0.017603 0.085153 0.994822 -0.011314 0.101000
0.029592 -0.056111 0.092611 0.944337 -0.024559 0.328062
-0.033451 0.011599 -0.103562 -0.936109 -0.013768 -0.351440
0.025882 0.063644 0.099951 0.186226 0.007216 0.982480
0.030246 0.061460 -0.056493 0.991404 0.128114 0.026536
0.022546 0.074514 0.084737 -0.126708 0.990458 0.054207
0.031941 0.014361 0.075633 0.993854 -0.009117 -0.110323
-0.035711 0.032951 -0.049117 -0.999002 0.043228 0.011246
0.031238 -0.053357 -0.053224 0.995323 -0.074201 0.061850
-0.035364 -0.045616 0.017966 -0.999593 -0.024116 0.015237
-0.001207 0.078181 0.041751 -0.004501 0.998324 0.057704
0.031290 0.001529 0.090514 0.972892 -0.035505 0.228518
0.033755 0.041450 -0.083527 0.995631 0.078708 0.050230
-0.028266 -0.081487 0.036853 -0.037452 -0.999296 0.002368
0.017757 -0.082388 0.048598 0.007426 -0.998820 0.047985
-0.035016 0.008300 0.043128 -0.999653 -0.000915 0.026339
0.027204 0.069537 0.038166 0.999118 -0.033741 -0.024999
0.030019 -0.074093 -0.085574 0.981975 -0.183682 0.044562
0.035087 -0.010805 -0.087968 0.999747 -0.019497 0.011205
-0.030066 -0.081446 -0.107785 -0.447098 -0.893811 -0.034725
0.027137 0.015881 -0.107712 0.217966 0.018777 -0.975776
0.033971 -0.045784 -0.087272 0.995122 -0.077334 0.061245
-0.022267 0.078116 0.099192 -0.077586 0.312433 0.946766
-0.036386 0.022777 -0.079972 -0.999522 0.004237 -0.030626
-0.033705 -0.071448 -0.039024 -0.996492 -0.082367 -0.014806
-0.034365 0.055087 -0.024164 -0.997011 0.077063 0.005537
-0.034893 0.002303 0.047377 -0.999557 0.001666 0.029730
-0.018070 0.074659 0.100567 0.058307 0.358156 0.931839
-0.033364 -0.067673 -0.085307 -0.996284 -0.081811 -0.026932
-0.034729 0.039968 0.054518 -0.999856 0.008681 0.014600
0.029484 0.071342 0.096136 0.948073 0.302493 0.098266
-0.034472 0.061200 -0.085868 -0.993761 0.111335 0.006560
0.025492 -0.043569 0.029983 0.996928 0.001020 -0.078318
0.028045 0.001974 0.047307 0.990063 -0.010663 -0.140217
0.029960 0.005907 0.061510 0.986416 0.010599 -0.163924
-0.023083 -0.000248 -0.110837 -0.095694 0.004787 -0.995399
-0.036068 -0.009321 -0.076642 -0.999483 -0.004047 -0.031903
0.029010 0.075205 -0.088170 0.946395 0.322995 -0.003152
0.021118 0.077241 -0.078127 0.065953 0.997113 0.037627
0.025707 0.029105 -0.107836 0.192155 0.015802 -0.981237
0.027137 0.072553 0.023533 0.998053 -0.062057 0.006280
-0.035106 -0.049826 0.036978 -0.999799 -0.016256 0.011710
-0.034884 -0.058725 0.038069 -0.999662 -0.026005 -0.000536
0.026386 -0.002149 0.100180 0.601772 -0.005044 0.798652
-0.028128 0.006717 0.101402 0.040315 -0.004535 0.999177
-0.021991 -0.080949 -0.049235 -0.024581 -0.999698 0.000468
-0.035544 0.030482 -0.028687 -0.999004 0.043821 0.008368
0.018906 -0.083686 0.018448 0.000259 -0.999897 0.014319
-0.032685 0.078236 -0.048193 -0.768564 0.639773 -0.000177
0.030527 0.068006 -0.102049 0.953027 0.298274 0.052651
-0.017941 -0.082227 0.080823 -0.006802 -0.999930 -0.009662
0.032760 0.046705 -0.073227 0.994146 0.096568 0.048451
-0.034427 0.056029 0.040771 -0.999419 0.034072 -0.001154
-0.034347 -0.001899 0.062500 -0.999286 0.005256 0.037417
-0.034461 0.045053 0.076356 -0.999939 -0.003259 0.010522
0.034410 -0.015265 -0.072294 0.998900 -0.010003 0.045803
0.017140 -0.082087 -0.009560 -0.007603 -0.999443 -0.032492
-0.004313 0.057122 0.101081 0.033751 0.001549 0.999429
-0.036373 -0.007515 -0.044173 -0.999972 0.006064 0.004348
0.016379 0.075599 0.069336 -0.093278 0.993833 0.059959
-0.022789 0.078607 0.035856 0.028865 0.999548 -0.008396
-0.018488 0.078621 0.005614 0.007733 0.999969 0.001610
0.025287 -0.006611 0.018928 0.999192 -0.015812 0.036940
0.031603 -0.012466 0.077979 0.989344 -0.022182 -0.143895
-0.012048 0.077576 0.086148 0.036056 0.964627 -0.261142
0.031943 -0.009815 0.081700 0.999511 0.006126 0.030678
0.005243 0.074187 -0.109249 0.218324 0.292968 -0.930862
-0.013962 -0.005148 0.100759 -0.128413 0.001138 0.991720
-0.034798 0.041149 0.051533 -0.999855 0.012134 0.011920
0.027911 -0.031752 -0.108321 0.288585 0.022608 -0.957187
0.026757 0.063785 0.024302 0.999290 -0.037568 0.002687
-0.035454 0.021056 -0.095490 -0.991325 -0.003493 -0.131384
0.030164 0.055044 -0.105941 0.517230 -0.026714 -0.855429
-0.033892 0.074812 0.073274 -0.999693 0.019066 -0.015849
0.032538 0.007083 0.080575 0.999380 -0.034250 -0.008146
-0.025701 -0.081671 0.041775 -0.050407 -0.998571 -0.017752
0.001951 -0.033847 0.101230 0.008267 0.002514 0.999963
0.026757 0.063785 0.024302 0.999290 -0.037568 0.002687
0.017945 0.033047 -0.109361 0.144673 0.004335 -0.989470
-0.015132 0.052713 0.100459 -0.033584 0.017719 0.999279
-0.034970 -0.054033 -0.054921 -0.997774 -0.065774 -0.010993
-0.005186 -0.081356 -0.082217 -0.008880 -0.999821 0.016734
-0.035042 0.035944 0.029984 -0.999776 0.020263 0.006101
0.030845 0.054529 0.066419 0.987861 0.052949 -0.146039
-0.036272 0.014423 -0.061642 -0.999986 0.003660 0.003915
0.026658 0.040252 0.013014 0.997179 -0.017622 0.072968
0.031676 0.065996 -0.104215 0.954584 0.169262 -0.245194
0.029447 0.071498 0.089007 0.937329 0.228150 -0.263368
-0.029543 0.079101 -0.085959 -0.110081 0.993916 0.003756
0.019794 0.077534 -0.068742 0.082062 0.996595 -0.008004
-0.030290 -0.035334 -0.109853 -0.619105 0.061165 -0.782923
0.003783 -0.082873 0.013264 -0.038545 -0.998737 -0.032223
-0.035333 -0.030879 -0.090464 -0.996785 -0.017378 -0.078220
-0.027240 0.079207 0.001477 0.044373 0.998816 -0.019965
0.027276 0.012206 0.044575 0.973960 -0.009322 -0.226526
-0.034606 -0.045440 0.068467 -0.999698 0.005526 0.023953
0.033058 -0.021373 -0.054939 0.996346 -0.027893 0.080731
-0.018153 0.023492 -0.111160 -0.061207 0.030663 -0.997654
-0.036212 0.003984 -0.029482 -0.999853 0.014868 0.008552
0.027084 -0.078657 0.098528 0.899164 -0.285375 0.331760
-0.027711 0.049903 -0.109871 -0.088579 0.007535 -0.996041
0.027394 0.015426 0.002093 0.992845 -0.018158 0.118023
-0.034534 0.047094 0.065623 -0.999915 0.011341 0.006427
0.030342 -0.027646 -0.106592 0.811046 -0.019437 -0.584659
0.000454 -0.081326 -0.074874 0.000368 -0.999970 0.007706
-0.034667 -0.000187 0.053958 -0.999264 -0.002365 0.038285
0.031507 0.056042 0.083736 0.962933 0.254778 -0.088591
0.031877 0.059119 -0.088359 0.984479 0.162379 0.066593
0.009642 -0.061656 -0.110941 0.179636 -0.001675 -0.983732
0.029460 0.019532 -0.014085 0.993062 -0.008685 0.117269
0.034188 -0.046622 -0.092000 0.997260 -0.059363 0.044153
0.026037 0.029682 0.019515 0.999148 -0.005424 0.040902
0.011050 0.075306 0.072828 -0.049532 0.993589 0.101626
-0.034526 -0.076055 0.085641 -0.999619 0.025890 0.009615
-0.035667 -0.039439 0.004900 -0.999698 -0.022856 0.009018
0.031148 -0.023888 0.076251 0.994473 -0.039941 -0.097096
-0.022524 -0.081759 0.025021 -0.045343 -0.998946 -0.007200
-0.033808 0.033981 0.093787 -0.990830 -0.013324 0.134453
0.032650 -0.062111 -0.093727 0.982243 -0.164449 0.090304
-0.034210 -0.062394 0.090211 -0.999309 0.012773 0.034902
-0.033878 -0.023485 0.087016 -0.999570 0.017949 0.023189
-0.008199 -0.078893 -0.110195 -0.050264 -0.305883 -0.950741
-0.032890 0.075302 -0.038559 -0.997710 0.059171 -0.032772
-0.030771 -0.080808 -0.065435 -0.410219 -0.911568 0.027644
0.026935 0.057610 0.014465 0.998178 -0.028576 0.053150
-0.033584 0.068746 -0.046524 -0.994401 0.104135 0.017956
0.030566 -0.035538 0.073465 0.993169 -0.041613 -0.109015
-0.036239 -0.018792 -0.027519 -0.999871 -0.012556 0.010009
0.025237 0.044008 0.100259 0.077337 0.000177 0.997005
0.028628 -0.075847 -0.044225 0.996125 -0.085324 0.021322
0.027159 0.030912 0.099922 0.608349 -0.021104 0.793389
-0.035841 0.020986 -0.028864 -0.999802 0.019804 0.001665
-0.007597 -0.078459 0.099789 -0.063637 -0.545087 0.835961
0.032744 0.024237 -0.049887 0.997189 0.021304 0.071832
0.008680 0.078014 0.036612 0.042274 0.997726 0.052503
0.033489 -0.044983 -0.078815 0.993079 -0.090346 0.075048
-0.004535 -0.066804 0.101510 0.019060 0.032064 0.999304
0.001181 0.043147 -0.111126 -0.019979 0.020027 -0.999600
0.027782 0.032556 0.001238 0.992148 -0.011337 0.124551
-0.035288 -0.053740 -0.020493 -0.997984 -0.063134 0.006478
-0.034114 0.065654 0.086586 -0.999340 0.034454 0.011502
0.012624 0.078117 -0.099857 0.064815 0.997009 0.042090
-0.034555 0.052629 -0.026794 -0.997756 0.066956 0.000372
-0.033334 0.014009 0.094666 -0.995821 -0.024087 0.088090
-0.009325 -0.081371 -0.053219 -0.048750 -0.998630 -0.019020
-0.017219 0.018533 -0.111163 -0.048282 -0.010356 -0.998780
0.026421 0.054175 0.024321 0.999555 -0.027863 0.010619
0.028177 0.015534 0.047742 0.990177 0.012293 -0.139275
0.007321 0.078242 -0.018821 0.025188 0.999644 0.008838
0.030600 -0.061811 -0.058954 0.992917 -0.112244 0.038960
-0.033636 -0.044307 0.097360 -0.994465 0.016071 0.103829
0.029882 -0.012724 0.062831 0.988553 0.001863 -0.150860
0.031199 0.050631 0.068307 0.987142 0.041289 -0.154422
0.031544 -0.053721 -0.104469 0.912589 0.012903 -0.408675
0.033971 -0.025915 -0.067655 0.998045 -0.037762 0.049802
-0.034622 0.051278 0.031194 -0.999434 0.033648 0.000513
-0.035257 -0.047581 0.027714 -0.999692 -0.022626 0.010171
-0.036046 0.004073 -0.016199 -0.999811 0.014705 0.012726
-0.010627 0.078737 -0.094172 0.009424 0.999903 -0.010212
-0.028457 -0.007115 0.101384 0.012413 -0.003061 0.999918
0.019845 -0.050231 0.100820 0.034465 -0.007487 0.999378
0.028505 0.041319 -0.004407 0.993747 -0.004267 0.111577
-0.036321 -0.014829 -0.029753 -0.999898 -0.012677 0.006561
-0.036188 0.009615 -0.036060 -0.999585 0.025384 0.013591
-0.022825 0.079574 -0.107794 -0.007302 0.922110 -0.386859
0.030493 -0.026045 0.091539 0.958346 -0.006716 0.285531
-0.015686 0.046025 -0.110654 -0.056130 0.024775 -0.998116
0.016596 -0.081761 -0.043539 -0.034169 -0.999385 -0.007914
-0.002746 0.062156 0.101015 0.031653 -0.001046 0.999498
0.023831 0.077928 0.020677 0.020424 0.999422 0.027168
0.025537 -0.012380 0.026327 0.998454 0.006480 -0.055214
0.027849 0.019493 0.046624 0.989814 0.000838 -0.142363
0.012752 -0.004777 0.100972 0.025747 0.004527 0.999658
-0.021266 0.078674 -0.037190 0.036067 0.999300 -0.009953
-0.033309 -0.054844 -0.103040 -0.965037 -0.006661 -0.262030
0.026891 0.066948 0.020930 0.999250 -0.035172 0.016226
-0.025778 0.079081 -0.065792 0.029631 0.999380 0.019001
-0.036230 -0.009908 -0.018675 -0.999923 -0.000050 0.012433
0.001420 -0.081705 -0.015176 -0.020068 -0.999692 -0.014587
0.033819 -0.051825 -0.091594 0.993562 -0.087182 0.072344
0.035165 0.012327 -0.085536 0.999225 0.014984 0.036397
0.025973 0.026861 0.022257 0.999663 -0.012806 0.022596
0.004340 0.077777 0.045900 -0.003648 0.999535 0.030268
0.033096 -0.008481 -0.052839 0.996607 -0.009246 0.081789
0.025963 -0.003027 0.032121 0.996259 -0.004745 -0.086290
-0.029155 -0.080873 -0.063384 -0.155008 -0.987532 0.027424
-0.033706 -0.079807 0.013702 -0.870673 -0.491050 0.028269
0.031282 -0.069102 -0.091168 0.981376 -0.181112 0.064030
0.023309 -0.083006 0.034013 0.129228 -0.987148 0.094018
-0.033979 0.000189 -0.101557 -0.952850 -0.013138 -0.303158
-0.034686 -0.079308 0.087349 -0.980828 -0.193164 0.025762
-0.035596 -0.030999 0.018528 -0.999687 -0.010640 0.022649
-0.034060 -0.008772 0.071900 -0.999306 0.006502 0.036683
-0.018855 -0.081902 0.023857 -0.062336 -0.998026 -0.007606
-0.026284 0.079458 -0.107534 -0.015793 0.961844 -0.273143
-0.003945 0.070905 0.101084 0.045971 0.168303 0.984663
0.008210 -0.075994 -0.110621 0.101209 -0.142904 -0.984548
-0.008229 -0.059695 -0.111302 -0.010274 -0.000130 -0.999947
0.024719 0.013290 0.100443 0.171242 0.004048 0.985221
-0.009238 0.076994 0.055506 0.026008 0.995759 0.088244
-0.020869 -0.081897 0.045130 -0.042201 -0.998961 -0.017225
-0.034122 0.066365 0.082705 -0.999372 0.033964 0.010092
0.028621 0.065753 -0.106511 0.358397 0.013454 -0.933472
-0.035780 -0.023843 0.017585 -0.999701 -0.001210 0.024405
-0.036357 -0.016687 -0.053946 -0.999821 -0.018118 -0.005392
-0.036336 0.004345 -0.048307 -0.999935 0.009362 0.006572
0.029645 0.022947 -0.106919 0.645251 -0.009701 -0.763909
0.008882 0.078208 -0.029371 0.027220 0.999617 -0.004922
0.032534 0.011935 -0.045297 0.996854 0.003715 0.079177
0.025196 -0.051640 0.019213 0.999983 -0.000988 0.005710
0.025493 -0.001567 0.018159 0.999192 -0.025970 0.030677
-0.034729 0.039968 0.054518 -0.999856 0.008681 0.014600
0.029786 0.061244 -0.032302 0.993675 0.107838 0.031308
0.025819 -0.027685 0.009955 0.994151 -0.006558 0.107804
0.028505 0.041319 -0.004407 0.993747 -0.004267 0.111577
0.025955 -0.081178 0.023313 0.982291 -0.183897 -0.035864
0.025851 0.025581 -0.107832 0.197519 0.015290 -0.980180
-0.017766 0.076192 0.075764 0.175854 0.984391 -0.007077
0.028386 0.061035 -0.004297 0.997201 0.015811 0.073077
-0.033448 0.071476 -0.006117 -0.996825 0.078535 -0.013158
0.024814 0.031374 0.100412 0.119327 -0.010027 0.992804
