-0.030577 -0.009810 -0.030117 0.554981 0.251486 -0.792938
-0.031794 -0.027634 0.015007 0.691845 0.721940 -0.012392
0.013677 0.008979 -0.037634 -0.061147 -0.040154 -0.997321
0.030067 -0.002729 -0.038942 0.028279 -0.001864 -0.999598
0.036069 -0.009119 0.036530 0.960154 -0.245476 -0.133589
-0.034222 -0.002997 -0.030867 0.578938 0.069880 -0.812372
-0.027871 -0.031290 -0.033702 -0.591566 -0.775167 -0.221732
0.014396 -0.003397 -0.036484 0.055218 -0.036809 0.997796
-0.024672 0.039504 0.039677 -0.152647 0.166181 -0.974209
-0.007512 0.045834 0.039617 -0.264911 0.503911 -0.822129
0.033027 -0.000466 -0.038346 0.437890 -0.021161 -0.898780
0.005343 -0.011268 -0.037396 -0.041391 0.037739 -0.998430
0.047074 -0.002172 -0.023892 -0.189811 -0.044986 0.980790
0.014489 0.039016 0.041904 -0.151557 -0.302556 0.941005
-0.032191 0.013288 -0.030490 0.550528 -0.186244 -0.813776
-0.033258 0.022211 -0.038060 -0.251107 0.249175 -0.935338
0.028573 -0.022528 0.006200 -0.803703 0.594920 0.011475
0.034391 0.015252 0.040406 -0.716602 -0.295794 0.631654
-0.013355 -0.023367 -0.036812 0.008186 -0.100488 0.994905
-0.019181 0.014208 -0.037557 0.055812 -0.045644 -0.997397
-0.003628 -0.040117 0.001108 0.020703 -0.999747 0.008779
-0.024601 -0.032154 0.002710 0.176411 0.582603 0.793381
-0.011923 -0.028146 -0.038317 0.035803 0.126127 -0.991368
0.022985 -0.028917 0.030886 -0.658903 0.752167 0.009511
-0.032557 -0.028272 0.015293 -0.658948 -0.752188 0.000357
-0.011439 -0.039366 0.016139 -0.210491 -0.977444 -0.017199
0.020290 -0.032298 -0.010303 0.592918 -0.805217 -0.008646
0.016045 -0.017773 -0.029353 -0.464653 0.461045 -0.756000
-0.021628 0.036167 0.016201 0.438325 -0.898715 0.013532
-0.000651 -0.039945 -0.019360 0.059246 -0.997961 -0.023755
0.003123 -0.032273 -0.035586 0.924547 -0.109436 -0.365015
0.016911 0.034799 -0.034518 0.493724 0.803697 -0.332127
0.008541 0.031806 -0.038781 0.009428 0.004443 -0.999946
-0.022311 -0.034327 0.028174 0.482251 0.876030 -0.002068
-0.006322 0.040135 0.010651 0.107668 -0.994105 -0.012766
0.010149 0.044885 0.040988 0.272438 0.938351 0.212781
0.009221 0.030207 -0.030029 -0.259021 -0.489364 -0.832725
-0.040817 -0.014551 -0.027369 -0.923627 -0.382520 -0.024340
0.008018 -0.038145 -0.028911 0.279314 -0.959391 -0.039399
0.026925 0.027405 -0.029561 0.759231 0.647925 -0.061336
-0.036982 0.024781 -0.001155 -0.815490 0.578670 -0.010783
0.059523 -0.006823 0.023570 0.603319 -0.468457 0.645410
-0.042832 0.008676 0.010580 0.981292 -0.192461 0.004912
-0.004379 0.040339 0.014696 0.053251 -0.998571 0.004387
0.024013 0.035221 0.039674 0.060433 0.218422 -0.973981
-0.036416 0.025784 0.018207 -0.787507 0.616270 -0.006623
0.034272 0.023454 0.042110 0.158757 0.121780 0.979778
-0.009637 0.033995 -0.030303 0.001894 -0.554087 -0.832456
0.022662 -0.024848 -0.001462 0.063881 -0.251530 0.965739
-0.005982 -0.038205 -0.036502 -0.065194 -0.796603 -0.600976
0.018203 -0.006297 -0.006244 -0.755477 0.314171 0.574935
0.035502 -0.007917 -0.033599 0.946583 -0.218487 -0.237160
-0.031794 -0.027634 0.015007 0.691845 0.721940 -0.012392
-0.019324 -0.031821 -0.038419 -0.110975 -0.328258 -0.938047
0.001891 0.041122 0.003398 0.154644 0.987488 -0.030852
-0.035201 0.033202 0.041989 -0.310098 0.289545 0.905540
-0.042488 0.009042 0.031394 0.980091 -0.194216 -0.041262
0.019313 -0.027829 -0.038400 0.246653 -0.309732 -0.918274
-0.036895 0.022929 0.004226 0.860908 -0.481562 0.164119
-0.005003 0.043532 0.039305 -0.020792 0.510794 -0.859451
-0.002813 0.041738 0.037061 -0.006819 0.936309 -0.351112
0.001315 0.044577 0.042286 0.033808 0.085993 0.995722
-0.014823 -0.021268 -0.037664 0.027051 0.089299 -0.995637
-0.020487 0.041186 0.039692 -0.127744 0.294960 -0.946932
0.010224 0.038983 0.000935 0.314444 0.949239 -0.008369
0.024180 -0.003770 -0.038278 -0.136240 0.012952 -0.990591
-0.032256 -0.028566 -0.003598 -0.691555 -0.722309 0.004722
0.032876 0.027096 0.042065 0.374580 0.218221 0.901149
0.007237 0.036194 -0.038097 0.135029 0.469602 -0.872491
0.011621 0.003705 -0.037418 -0.059667 -0.015979 -0.998090
-0.029053 0.031329 0.039119 0.607757 -0.756588 0.241261
-0.009336 0.006820 -0.035718 0.008154 0.012022 0.999894
-0.042148 -0.014356 0.038875 -0.746504 -0.265701 -0.610028
-0.014221 -0.037701 0.021673 0.280101 0.959953 -0.005850
-0.020004 0.007999 -0.037398 0.056034 -0.031020 -0.997947
0.010047 -0.036649 0.017810 -0.347445 0.937700 0.000900
-0.021730 -0.041247 0.041730 -0.281988 -0.629613 0.723927
-0.004657 -0.040308 0.032098 -0.015099 -0.998966 -0.042879
0.030304 -0.023074 0.038019 0.710816 -0.517529 -0.476345
0.015292 -0.034621 0.036151 -0.476688 0.878565 0.029875
0.001292 0.040111 -0.035171 0.121869 0.904390 -0.408934
-0.044438 0.003435 -0.005168 -0.997670 0.062770 -0.026746
0.010953 0.038991 0.030079 0.372118 0.928185 0.000620
0.016728 -0.034549 -0.008496 0.499646 -0.866083 -0.015916
0.034371 -0.010753 0.010087 -0.937733 0.333008 -0.098801
-0.043717 0.001052 0.039249 0.961676 -0.028210 0.272734
-0.026317 0.034885 0.034633 -0.530548 0.845146 -0.065166
0.022554 0.022560 -0.031851 -0.346003 -0.285697 -0.893677
0.005088 -0.039164 0.002267 0.213715 -0.976711 -0.019012
0.009175 -0.034582 -0.034110 0.095606 0.466101 -0.879551
-0.030239 -0.017155 -0.038516 0.075340 0.073548 -0.994442
-0.023227 0.017190 -0.037976 0.073547 -0.084968 -0.993666
-0.033450 0.027376 0.014894 0.739538 -0.673065 -0.008204
0.034339 -0.010776 -0.034588 0.904997 -0.263586 -0.333922
-0.043367 -0.000953 0.020259 0.999426 0.031945 -0.011274
0.016168 0.036222 0.018324 0.479693 0.877424 -0.004573
-0.034746 -0.025874 0.003549 -0.771668 -0.636021 -0.002411
0.030685 0.020422 0.032709 -0.864718 -0.502243 0.003812
0.030001 0.023858 0.016757 0.817003 0.576377 0.017217
0.020954 -0.032054 0.035036 0.609842 -0.791276 -0.044443
0.034348 0.015160 -0.012328 0.928661 0.368743 -0.040228
-0.019617 0.043454 0.039588 -0.172875 0.500728 -0.848166
-0.000021 -0.001095 -0.037029 -0.025927 0.019090 -0.999482
-0.026396 -0.037009 0.042161 -0.034575 -0.015765 0.999278
0.017593 0.003091 -0.037766 -0.057465 -0.015590 -0.998226
0.025308 0.032037 0.039560 0.284002 0.387461 -0.877050
0.037279 0.002579 0.016428 0.998463 0.048425 -0.026944
0.021705 0.032585 0.034011 0.628984 0.776135 -0.044654
-0.013535 -0.029791 -0.033402 0.127617 0.506606 -0.852681
-0.028433 -0.031615 -0.010815 -0.602824 -0.797728 -0.015286
-0.035801 0.025008 -0.031811 -0.801992 0.586553 -0.112980
-0.004064 -0.044565 0.041989 -0.015552 -0.406074 0.913708
-0.003107 -0.004688 -0.035652 -0.005119 0.013374 0.999897
-0.002008 -0.040062 0.005335 0.023979 -0.999550 -0.018002
0.020026 0.014850 -0.038363 -0.089140 -0.058982 -0.994271
-0.018888 -0.036892 -0.026568 -0.376621 -0.926091 -0.022636
0.029249 -0.025615 0.038968 0.550899 -0.371299 -0.747427
0.054476 -0.003192 -0.019138 -0.664821 0.433729 0.608187
0.006206 0.005349 -0.037182 -0.012966 -0.006594 -0.999894
-0.037037 -0.020978 0.025768 0.837048 0.547045 -0.009602
0.038022 -0.002474 0.030742 0.704347 -0.202397 0.680390
0.024035 -0.029445 0.019524 0.666999 -0.744556 -0.027343
-0.034704 0.034684 0.041542 -0.444771 0.535070 0.718247
0.045070 0.000313 0.029605 0.081067 0.026758 0.996349
-0.005702 0.031558 -0.038567 -0.003900 -0.111109 -0.993801
-0.003169 0.041537 0.007074 0.009071 0.999935 0.006837
-0.007389 -0.001953 -0.037013 0.008967 0.006278 -0.999940
0.035804 -0.002409 0.000159 -0.989089 0.081535 0.122696
0.013500 -0.035466 0.036768 -0.422605 0.906272 0.008744
-0.039231 -0.028938 0.041246 -0.783506 -0.373170 0.496853
-0.012248 -0.039186 -0.000858 -0.205293 -0.978605 0.013704
-0.037140 0.025796 0.038937 -0.669560 0.415793 -0.615471
0.026642 0.018381 0.001663 -0.192345 0.032684 0.980783
-0.039463 -0.019382 0.040921 0.611451 0.371683 0.698556
-0.034614 0.031120 0.042210 0.083872 -0.103804 0.991055
-0.038010 0.021156 0.009661 0.864203 -0.503133 -0.003326
-0.037706 -0.013810 0.002307 0.310747 -0.152041 0.938254
-0.000229 0.000067 -0.035769 -0.011199 -0.014630 0.999830
-0.031833 -0.027345 0.004220 0.690684 0.722326 0.034648
0.019497 -0.016032 -0.038416 -0.096920 0.054600 -0.993793
0.038821 -0.005459 0.039993 0.206115 -0.058030 -0.976806
0.017344 0.035476 -0.010774 0.510548 0.859844 -0.003028
-0.006004 0.023003 -0.010319 0.120347 -0.976900 0.176585
-0.006803 0.013035 -0.037089 0.010593 -0.001982 -0.999942
-0.040892 0.017651 0.030821 -0.916504 0.399759 -0.014570
0.033047 0.018652 0.021231 0.887628 0.459931 -0.024085
0.038466 -0.003054 -0.026062 0.353075 -0.142124 -0.924737
-0.042211 0.011529 0.017379 0.976412 -0.185803 0.109989
-0.031415 -0.028893 -0.020854 -0.679224 -0.733906 -0.006011
0.023852 -0.029521 0.018407 0.687693 -0.725799 0.017144
0.036160 -0.001999 0.021658 -0.997304 0.071237 0.017609
-0.005669 0.041623 0.036923 -0.044942 0.944162 -0.326403
-0.043227 -0.009959 0.009431 -0.965734 -0.259293 0.011182
-0.001707 0.040216 0.025288 -0.044891 -0.998797 0.019757
-0.009128 0.028357 -0.036632 -0.028704 0.128088 0.991347
0.033666 0.015010 -0.034126 0.886043 0.328043 -0.327590
0.034381 -0.009962 0.005517 -0.984438 0.172084 0.035615
0.021086 -0.031605 0.008625 0.587205 -0.802570 -0.105222
0.022725 0.031553 -0.018024 0.633862 0.773384 -0.009857
0.037721 -0.005485 0.039288 0.758432 -0.081059 -0.646691
0.036296 -0.008333 0.007306 0.980116 -0.198189 -0.009698
0.036081 0.006782 -0.032303 0.971258 0.167215 -0.169403
0.036629 0.007238 0.001927 0.992447 0.118087 -0.033224
-0.044042 -0.006383 0.008468 -0.985252 -0.170905 0.008332
0.033108 0.029275 0.040558 0.826725 0.551946 0.109004
-0.039785 0.017170 0.034583 0.911037 -0.412281 0.006034
0.018353 0.016243 -0.038281 -0.077562 -0.065980 -0.994802
-0.030184 -0.030175 0.034436 -0.642614 -0.766190 -0.000829
-0.022872 0.036913 0.006793 -0.466042 0.884763 0.000002
0.027809 0.024693 0.004742 -0.770860 -0.636968 0.006845
0.019921 -0.000957 -0.037896 -0.070556 0.005454 -0.997493
-0.034590 0.027981 0.002978 -0.771578 0.636078 -0.008506
-0.038009 -0.021616 0.014826 -0.839984 -0.542599 0.003619
0.030038 -0.000119 -0.038860 -0.005179 -0.005118 -0.999973
0.033682 0.009794 -0.036866 0.677475 0.193287 -0.709695
0.026214 0.026512 0.035964 -0.739130 -0.672055 0.045043
0.036000 -0.004711 0.024433 -0.992227 0.122331 0.022827
0.017172 -0.034444 -0.005035 0.510229 -0.859473 -0.031171
0.015119 -0.028675 -0.037224 -0.380443 0.853368 0.356407
-0.001440 0.041220 -0.018132 0.059127 0.998116 0.016359
-0.019465 -0.026931 -0.037806 0.034748 -0.158048 0.986820
0.026798 -0.006873 -0.038727 -0.102927 0.042632 -0.993775
-0.000572 0.000382 -0.036939 -0.015253 0.007903 -0.999852
0.008433 0.006253 -0.035820 0.029168 0.030135 0.999120
0.035076 -0.009089 0.024539 -0.968678 0.241503 0.057793
0.012241 0.041274 0.042375 -0.004576 -0.033272 0.999436
0.023906 -0.029440 -0.000606 0.645202 -0.764003 -0.003612
0.024600 0.030055 0.002815 0.685368 0.728119 -0.010681
0.019747 -0.025038 -0.037148 -0.685182 0.670296 0.285006
-0.037881 0.023526 0.032618 -0.833985 0.551439 0.019576
-0.036505 0.024599 -0.021413 -0.817574 0.575728 0.010507
-0.004401 -0.035867 -0.038497 -0.021725 -0.367656 -0.929708
-0.004087 0.040253 0.028226 -0.000759 -0.999958 -0.009092
0.049582 -0.006683 -0.022358 0.309780 -0.636311 -0.706502
0.036228 0.002060 -0.033707 0.970957 0.068856 -0.229131
-0.030463 -0.030174 -0.001781 -0.656203 -0.754521 -0.009779
-0.035243 0.027120 0.029019 -0.771658 0.635713 0.020306
-0.030335 -0.008883 -0.000333 0.466854 0.147105 0.872013
0.008031 0.039591 -0.000376 0.281583 0.959535 -0.001997
0.003123 -0.032273 -0.035586 0.924547 -0.109436 -0.365015
0.024583 -0.019057 -0.035416 -0.166796 0.937437 -0.305600
0.017807 -0.034047 -0.001937 0.535217 -0.844507 -0.018717
-0.008411 -0.030304 -0.032914 0.084968 0.613316 -0.785254
0.027553 -0.024187 0.012545 -0.777965 0.628148 0.014166
-0.017829 -0.035811 -0.036140 -0.315233 -0.787150 -0.530116
-0.029183 -0.031428 0.041112 0.344086 0.531729 0.773866
-0.018648 0.006510 -0.037285 0.036693 -0.017935 -0.999166
0.011687 -0.035773 -0.035637 0.339347 -0.842239 -0.418901
-0.041038 0.018031 0.020891 -0.915739 0.401774 -0.000359
0.002750 0.039733 0.033505 -0.136106 -0.990087 0.034694
0.065492 0.001455 0.011893 0.956383 0.214321 0.198489
0.034734 0.011193 0.010165 -0.963407 -0.268007 0.004265
-0.021362 0.021991 -0.038311 0.071648 -0.082953 -0.993975
-0.026487 -0.024145 -0.035684 0.670744 0.607154 -0.425989
0.002006 -0.027343 -0.038261 -0.003886 0.077437 -0.996990
0.034262 -0.019654 0.039761 0.250880 -0.160795 -0.954570
-0.009761 0.013984 -0.037206 0.005855 -0.047315 -0.998863
-0.019936 -0.024526 -0.036589 -0.080069 -0.141767 0.986657
0.019004 -0.014601 -0.001563 -0.471056 0.260053 0.842899
-0.014475 -0.037778 -0.034333 -0.296837 -0.909787 -0.290130
0.026108 0.027508 0.039875 -0.673509 -0.593176 0.441054
0.007541 -0.018777 -0.037768 -0.043553 0.055287 -0.997520
-0.034808 -0.025799 0.023257 -0.765034 -0.643912 0.010035
-0.036215 0.002138 -0.031976 0.525252 0.039118 -0.850047
-0.043490 0.008041 -0.020163 -0.984937 0.172827 -0.005433
-0.032193 -0.020515 -0.035564 -0.379612 0.809048 -0.448705
0.027143 -0.024440 0.003730 -0.781861 0.623152 0.019387
0.030377 0.004075 -0.037397 -0.514399 0.258221 0.817750
-0.003300 -0.040198 0.009266 -0.012696 -0.999893 -0.007244
0.022713 -0.009184 -0.036716 0.104584 -0.007726 0.994486
0.037261 -0.001776 -0.027018 0.726793 -0.076641 -0.682568
0.010969 -0.002128 -0.037371 -0.036593 0.026849 -0.998969
0.036303 0.000039 0.017803 -0.999120 0.033347 0.025451
0.018108 -0.032640 0.024228 -0.566965 0.823500 -0.019969
0.016123 0.031458 0.000274 0.193120 -0.115001 0.974412
-0.005168 -0.040065 -0.000816 -0.028416 -0.999553 0.009313
0.031462 0.019166 0.036984 -0.887509 -0.459363 0.036238
0.024471 0.028364 0.031517 -0.698421 -0.715639 0.008338
-0.025819 0.033540 0.010470 0.560128 -0.828405 0.001406
0.065558 -0.004523 -0.003568 0.956920 -0.189727 -0.219793
0.019001 0.000888 -0.037833 -0.061150 0.004415 -0.998119
0.034977 -0.010186 0.038830 -0.925582 0.239639 0.293037
0.020050 0.033516 -0.017030 0.578396 0.815397 -0.024212
0.012755 -0.035662 0.028503 -0.414270 0.909491 -0.034722
-0.043354 -0.001335 0.027865 0.997850 0.065535 -0.000587
-0.008706 -0.036706 -0.037917 -0.102021 -0.531666 -0.840787
-0.021608 -0.009955 -0.037480 0.053087 0.004390 -0.998580
-0.025928 0.033537 0.029159 0.552400 -0.833525 -0.009518
-0.037457 -0.008087 -0.037814 0.203859 -0.018628 0.978823
-0.006202 0.040102 0.023946 0.065386 -0.997815 0.009516
0.008595 0.038372 0.033085 -0.304388 -0.952385 0.017648
0.034395 -0.006611 -0.036811 0.785274 -0.154597 -0.599537
0.014530 0.035838 0.037033 -0.487718 -0.870628 0.064335
0.015924 0.035011 0.002783 -0.426295 -0.884021 0.191778
0.021729 -0.019097 -0.038895 -0.063813 0.059578 -0.996182
0.011173 0.038562 -0.005111 0.355787 0.934421 -0.016548
0.010136 0.022165 -0.023559 -0.528346 -0.655901 -0.539115
-0.024419 0.034500 0.016884 0.542935 -0.839753 0.006032
-0.042810 -0.004783 0.002563 0.719510 0.333089 0.609390
-0.020413 -0.012249 -0.036349 -0.024837 -0.046832 0.998594
-0.009676 -0.033572 -0.000406 0.141701 -0.154478 0.977782
-0.038168 -0.021011 0.033414 -0.845669 -0.533612 0.010107
-0.009952 -0.007192 -0.035992 -0.007562 -0.035978 0.999324
0.055876 0.002623 -0.018620 0.463470 0.718430 -0.518704
-0.027425 -0.017028 -0.030994 0.460823 0.422805 -0.780306
0.032304 0.009683 -0.036277 -0.896482 0.015083 0.442824
0.009697 -0.038054 0.040716 -0.231601 0.710203 0.664810
-0.042335 0.010143 0.028488 0.976801 -0.213892 0.010459
0.033239 -0.016666 -0.005467 0.904369 -0.426500 -0.014627
-0.019519 0.020307 -0.038075 0.057131 -0.074602 -0.995575
-0.034295 0.028263 0.025523 -0.755945 0.654616 -0.004991
0.012285 0.019760 -0.036467 0.108705 0.104689 0.988546
0.018602 -0.033816 0.035954 0.520866 -0.846671 -0.108845
0.005902 0.029464 -0.038602 -0.045955 -0.107057 -0.993190
-0.014423 -0.038658 0.006625 -0.267727 -0.963416 -0.012322
0.031785 0.018238 -0.035169 0.800208 0.406906 -0.440561
0.001830 0.029472 -0.038424 -0.029486 -0.127716 -0.991372
-0.032390 0.030088 -0.004742 -0.691192 0.722038 -0.030239
0.013377 0.012001 -0.037731 -0.059399 -0.022402 -0.997983
-0.000647 0.046476 0.041742 0.057388 0.696757 0.715008
-0.025606 0.011026 -0.022894 0.811763 -0.298736 -0.501794
0.026701 0.016217 -0.038875 0.093342 0.053365 -0.994203
0.041657 -0.000743 -0.024857 -0.149646 -0.345050 0.926578
-0.039818 -0.005822 -0.035883 0.565112 0.013967 0.824896
-0.044508 0.003770 0.034173 -0.998013 0.061540 0.013516
0.025566 0.022200 -0.036389 -0.458259 -0.332389 0.824328
-0.035789 -0.024528 0.002582 -0.787076 -0.616836 0.004875
0.032435 0.019451 -0.013788 0.887843 0.458882 -0.034102
-0.014614 -0.037622 0.027183 0.249708 0.967612 0.037051
0.038316 -0.008285 0.027644 0.260939 -0.858637 0.441196
0.008919 -0.029396 -0.034344 -0.079008 0.284968 -0.955275
0.035586 -0.007576 0.032511 -0.985251 0.170449 0.015060
-0.017109 -0.036617 0.005208 0.320685 0.945448 0.057349
-0.031195 -0.034720 0.042109 -0.203707 -0.231694 0.951221
0.039537 -0.008617 0.024993 -0.064339 -0.766514 -0.638997
-0.007986 0.039826 0.007658 0.120988 -0.992482 0.018461
-0.021277 -0.034750 0.014424 0.470846 0.881976 0.020530
-0.032928 0.009850 -0.038508 0.092746 -0.034296 -0.995099
0.001035 -0.039845 0.000454 0.124833 -0.992131 -0.009628
0.030856 0.022050 -0.024186 0.844106 0.536167 0.003181
0.050893 0.003198 -0.021050 0.249792 0.826250 -0.504892
-0.036905 -0.022863 -0.012029 -0.812423 -0.582897 -0.014145
0.001451 -0.040003 0.040844 -0.079763 0.737175 0.670978
-0.028688 0.032780 0.040885 0.452186 -0.576189 0.680833
0.032400 0.019868 0.017540 0.875256 0.483639 -0.004473
-0.034956 -0.025720 0.012071 -0.755075 -0.655604 0.006657
-0.023283 0.019019 -0.038183 0.077951 -0.101731 -0.991753
0.025924 -0.027833 0.032333 0.726883 -0.686760 0.001135
0.017304 -0.030642 -0.037809 0.323409 -0.512350 -0.795553
0.028094 -0.025075 0.022038 0.782495 -0.622380 0.018546
-0.012132 -0.039276 0.025421 -0.213998 -0.976822 -0.004751
0.029618 0.022282 0.039325 -0.777039 -0.477967 0.409581
0.018414 0.017540 -0.027317 -0.586470 -0.443237 -0.677934
0.028946 -0.024059 0.023595 0.793533 -0.608522 0.002577
-0.004037 0.020315 -0.037486 0.008696 -0.057220 -0.998324
-0.010334 0.027889 -0.002315 0.157406 -0.488636 0.858171
-0.019719 -0.034914 0.002618 0.489562 0.649298 0.582015
-0.033314 -0.026909 -0.024807 -0.748188 -0.663278 -0.016642
0.034878 0.014729 0.018615 0.935055 0.354503 -0.000378
0.017994 -0.034120 0.023297 0.525860 -0.850391 -0.017499
-0.043384 0.000865 0.023823 0.999925 -0.011094 -0.005217
-0.033995 -0.010971 -0.038487 0.077617 0.032666 -0.996448
-0.035070 -0.024392 -0.032261 -0.773655 -0.623069 -0.115077
-0.042617 0.013334 0.034241 -0.950139 0.311593 -0.012046
-0.032544 -0.028242 0.013475 -0.679304 -0.733806 0.008611
0.021931 -0.010890 -0.038292 -0.106372 0.080329 -0.991076
0.026214 0.026512 0.035964 -0.739130 -0.672055 0.045043
0.035478 -0.005359 0.006424 -0.984082 0.177296 0.012196
0.038138 -0.016344 0.042039 0.408516 -0.079146 0.909313
-0.011926 -0.037998 0.000962 0.100692 0.989872 0.100072
-0.008569 0.032117 -0.038677 0.031494 -0.077426 -0.996501
0.008731 0.039403 -0.016049 0.327809 0.944732 0.004649
-0.000352 0.033764 0.000506 -0.162127 -0.209055 0.964371
0.035984 -0.004509 0.037186 -0.988942 0.109197 0.100347
-0.037155 -0.022818 0.001948 -0.810694 -0.585470 0.000311
0.024653 -0.035963 0.040204 0.494592 -0.819830 -0.288544
0.027699 -0.023904 0.009956 -0.777660 0.628322 0.021360
0.031831 0.018455 0.013890 -0.901063 -0.432980 0.024795
-0.013369 -0.038850 0.003221 -0.241032 -0.970498 -0.006112
0.015905 -0.034876 -0.022400 0.499250 -0.866363 -0.012865
0.034121 -0.018461 0.041521 -0.431695 0.191790 0.881394
0.034121 -0.018461 0.041521 -0.431695 0.191790 0.881394
-0.043147 0.005431 0.016756 0.994337 -0.104172 -0.021037
-0.035171 0.026667 -0.014245 -0.786401 0.617553 -0.014214
0.010479 0.039119 0.028943 0.343746 0.938387 -0.035604
-0.034937 0.009629 -0.038669 0.042927 -0.011087 -0.999017
-0.038838 0.022230 0.017569 -0.867713 0.497060 0.002384
0.010841 -0.010499 -0.036466 0.069805 -0.011680 0.997492
-0.027995 -0.032008 0.024509 -0.598253 -0.801080 0.019068
0.010801 -0.019473 -0.027666 -0.396579 0.605348 -0.690130
-0.021608 -0.009955 -0.037480 0.053087 0.004390 -0.998580
-0.009256 -0.039797 0.020472 -0.164660 -0.986342 0.004152
-0.027968 -0.011392 -0.037878 0.093588 0.039211 -0.994839
0.007588 -0.029283 -0.038742 -0.064661 0.091434 -0.993710
0.031246 0.019535 0.010828 -0.873316 -0.487154 0.000299
-0.002930 0.038577 -0.032620 0.067748 -0.764605 -0.640929
-0.014107 0.020937 -0.007216 0.436237 -0.778123 0.451909
-0.014816 -0.038509 0.016585 -0.276600 -0.960968 0.005753
-0.006444 -0.040096 0.018206 -0.060036 -0.997795 -0.028315
0.035056 0.014266 0.033146 0.938796 0.344457 -0.003504
-0.018696 -0.003686 -0.037218 0.052340 0.001093 -0.998629
0.028695 0.025672 0.004368 0.781652 0.623708 -0.002812
-0.025343 -0.020576 -0.037353 -0.054230 -0.071181 0.995988
0.025481 -0.028052 0.002400 0.694370 -0.719072 -0.028014
0.026956 0.025745 0.034421 -0.749100 -0.661624 -0.033210
0.009960 -0.015269 -0.021223 -0.549684 0.729615 -0.406829
-0.021326 -0.034715 0.011858 0.434152 0.899892 -0.041312
0.007685 0.040093 0.027504 0.307104 0.951522 0.017134
-0.029231 -0.013410 -0.030343 0.498926 0.347168 -0.794070
-0.014725 -0.037400 0.016770 0.276882 0.960898 -0.003250
-0.039147 -0.000002 -0.036822 0.236583 0.064178 0.969489
-0.037382 0.017399 -0.036345 0.759496 -0.287638 0.583465
-0.027126 0.034290 -0.006221 -0.558402 0.828974 -0.031466
-0.032386 0.030249 0.037760 -0.655569 0.654643 -0.376392
0.033389 -0.007338 -0.035378 -0.790775 -0.611572 0.025604
0.036029 -0.002236 0.018342 -0.996568 0.080463 0.019421
0.002398 0.039688 0.020262 -0.123401 -0.992191 -0.018149
-0.013622 0.039076 0.030262 0.252280 -0.967654 0.000044
0.005513 0.039226 0.031671 -0.232898 -0.972315 0.019016
-0.031146 0.008871 -0.028791 0.637833 -0.144086 -0.756577
-0.043920 0.008322 0.016877 -0.983161 0.182741 -0.000338
0.000406 0.039244 0.000761 -0.221096 -0.621247 0.751777
0.023435 -0.005887 -0.038257 -0.115867 0.021826 -0.993025
0.015618 -0.035291 0.001049 0.453710 -0.891097 -0.009666
-0.043085 0.008021 -0.034007 -0.936036 0.161484 -0.312664
-0.021464 0.017496 -0.021737 0.592759 -0.535366 -0.601682
-0.024044 -0.033242 0.015996 0.479827 0.877326 -0.008064
0.027610 0.021701 -0.036084 -0.576820 -0.458468 0.676081
0.013230 -0.016946 -0.037952 -0.067064 0.059801 -0.995955
-0.002656 -0.040148 0.008136 0.021408 -0.999488 -0.023795
0.016670 0.006395 -0.013645 -0.955408 -0.294874 -0.015668
0.031044 -0.020039 -0.030665 0.847640 -0.525685 -0.071846
0.035775 0.012059 0.027277 0.956885 0.290269 -0.010766
0.015102 0.030663 -0.032157 -0.274120 -0.374048 -0.885972
-0.014135 -0.035951 -0.034410 0.082333 0.595505 -0.799122
0.063189 -0.009264 0.010879 0.224784 -0.974404 -0.002850
0.027710 -0.025696 0.033384 0.772052 -0.635560 -0.000601
0.024371 -0.017107 0.000755 -0.201812 -0.064244 0.977315
-0.042991 0.005678 0.037806 0.980683 -0.127798 0.148081
0.060502 0.003702 -0.009562 0.309258 0.950474 -0.030958
0.025413 -0.020059 -0.038781 0.201896 -0.114572 -0.972682
-0.007290 -0.036756 -0.001771 -0.033356 -0.121396 0.992044
-0.042912 0.010952 -0.017501 -0.968348 0.248926 -0.018371
0.010981 -0.004996 -0.036205 0.053682 -0.042610 0.997649
0.063123 -0.007243 0.017663 0.838697 -0.447617 0.310205
-0.038323 0.022601 -0.004147 -0.851039 0.524235 -0.030163
0.017990 -0.032751 0.030539 -0.560887 0.827603 0.021861
-0.034300 0.007541 -0.038572 0.060666 -0.016478 -0.998022
0.031228 -0.022377 0.038809 0.705533 -0.304202 -0.640066
-0.003248 -0.009989 -0.037130 -0.001342 0.017714 -0.999842
0.031413 0.019665 0.039053 -0.849028 -0.465322 0.250256
0.027702 0.024903 0.024600 -0.762074 -0.647464 -0.005811
0.006572 0.040041 0.013355 0.266786 0.963750 -0.003299
0.009175 -0.034582 -0.034110 0.095606 0.466101 -0.879551
-0.028377 0.005826 -0.024927 0.805635 -0.115430 -0.581058
0.028565 -0.024524 0.026054 0.802047 -0.597134 -0.012308
0.026039 -0.016868 -0.034046 -0.137072 0.243083 -0.960272
-0.031781 -0.003902 -0.000223 0.479812 0.051965 0.875831
0.033215 0.024326 0.039530 0.230051 0.178068 -0.956749
-0.037048 -0.017936 -0.034533 0.829717 0.465869 -0.307466
0.013619 0.021762 -0.037064 0.106061 0.116272 0.987538
-0.035770 0.024323 0.022052 0.812095 -0.582897 -0.027082
0.059831 -0.008169 -0.012316 0.350036 -0.890545 -0.290523
0.037924 -0.005053 0.026144 0.774305 0.498139 -0.390269
0.053368 -0.002699 -0.021453 -0.503397 0.082458 0.860112
0.024806 0.008560 -0.030152 -0.630111 -0.141774 -0.763453
-0.022194 0.035886 0.027905 0.436756 -0.899308 0.022127
0.020382 -0.032123 0.007515 0.669024 -0.743226 -0.004704
-0.043973 0.004981 -0.015678 -0.993720 0.110126 -0.019841
-0.015844 -0.037027 0.012016 0.367073 0.928035 -0.063319
0.036129 0.004290 0.038479 -0.966288 -0.108435 0.233517
-0.000043 -0.039903 -0.017290 0.089577 -0.995665 0.025035
-0.016540 -0.036941 0.016790 0.393943 0.918630 -0.030468
-0.030153 -0.029436 -0.033200 -0.631861 -0.745374 -0.212529
-0.012898 0.042086 0.038924 -0.140669 0.637986 -0.757091
0.009998 -0.016703 -0.007102 -0.488230 0.693363 0.529981
-0.036555 0.015286 -0.037367 0.296029 -0.124564 0.947022
-0.007255 -0.021398 -0.037574 -0.001642 0.071124 -0.997466
-0.024469 -0.028407 -0.038521 -0.137409 -0.234528 -0.962349
-0.035841 -0.024415 0.024743 -0.799845 -0.599702 0.024597
0.012863 0.012134 -0.036363 0.061209 0.027131 0.997756
-0.025819 0.033540 0.010470 0.560128 -0.828405 0.001406
0.029398 -0.021816 0.017923 -0.831462 0.555578 -0.001651
0.029417 -0.023451 0.017704 0.805025 -0.593196 -0.007371
-0.019930 0.025691 -0.038515 0.086316 -0.102315 -0.991000
0.032642 0.016923 0.012345 -0.898055 -0.439141 0.025544
-0.032701 0.037037 0.040323 -0.600913 0.755272 -0.261665
0.034830 0.013783 -0.020469 0.944193 0.329393 -0.000066
0.036116 -0.003752 0.017674 -0.985418 0.170151 -0.000734
0.036050 0.004441 0.014447 -0.996511 -0.082382 0.013382
-0.014823 -0.021268 -0.037664 0.027051 0.089299 -0.995637
0.012631 0.044080 0.040622 0.368522 0.918776 0.141569
-0.027878 -0.011090 -0.001350 0.563883 0.248217 0.787670
0.033462 -0.016135 -0.012637 0.912302 -0.409399 -0.009897
-0.004489 0.040161 0.010614 -0.046767 -0.998902 -0.002845
0.057178 0.001575 -0.011071 -0.927895 0.096649 0.360098
0.036508 0.010455 0.040990 -0.621893 -0.171863 0.764010
0.010962 0.000000 -0.037317 -0.049406 0.005309 -0.998765
0.021312 -0.027174 -0.038083 0.356511 -0.415657 -0.836737
0.039678 0.004876 0.028286 0.307172 0.698917 0.645879
-0.041809 0.016065 0.015763 -0.932705 0.360268 0.016374
0.029429 0.025930 0.041387 -0.390053 -0.340680 0.855450
0.036403 0.009184 0.002477 0.981621 0.188918 -0.027037
-0.032556 0.029048 -0.030314 -0.709764 0.702555 -0.051505
-0.026655 -0.031490 0.028721 0.577464 0.816314 -0.012948
-0.016847 -0.037875 0.024487 -0.340960 -0.940022 -0.010244
0.024051 0.030554 0.006807 0.682261 0.731109 0.000716
-0.018029 -0.013604 -0.037412 0.031896 0.037343 -0.998793
0.036156 -0.002172 0.024091 -0.997169 0.075044 0.004672
0.024180 0.009597 -0.038511 -0.110096 -0.045956 -0.992858
0.029259 -0.022803 -0.031181 0.781449 -0.619612 -0.073612
0.022694 -0.015845 -0.038745 -0.125935 0.048720 -0.990841
0.022284 0.028707 -0.037160 0.451549 0.520838 -0.724452
-0.014622 -0.027575 -0.038357 0.037612 0.123624 -0.991616
-0.019059 -0.035815 0.021122 0.336880 0.938440 -0.076432
0.036865 0.006899 0.010648 0.990808 0.130368 0.036106
0.002863 0.017500 -0.035815 0.081810 0.014556 0.996542
-0.003542 -0.040082 -0.008206 -0.030530 -0.999532 -0.001688
-0.027098 0.032606 0.016988 0.529445 -0.847921 0.026807
0.044191 0.000698 0.027706 -0.112872 -0.513987 -0.850339
0.025945 0.028737 0.012860 0.717481 0.696482 -0.011579
-0.043240 0.011448 0.010680 -0.972743 0.231888 0.000016
-0.017723 -0.036460 0.019872 0.320594 0.947208 -0.004162
0.057172 -0.004344 -0.016842 -0.609733 0.418292 0.673244
-0.043076 0.010273 -0.025039 -0.973802 0.227289 -0.007048
-0.036344 -0.019714 -0.034434 0.843947 0.471077 -0.256594
-0.000177 0.007676 -0.037125 -0.008289 -0.003028 -0.999961
-0.044531 -0.002110 0.009181 -0.997569 -0.069572 0.003965
-0.034207 -0.025230 -0.033078 -0.773445 -0.607987 -0.179262
0.004421 0.008248 -0.037211 -0.053676 -0.022416 -0.998307
-0.044944 0.009741 0.039292 -0.418934 0.100812 -0.902403
-0.045727 0.004428 0.041692 0.349076 -0.090575 0.932707
-0.007193 -0.038876 0.015090 0.099008 0.995079 -0.003906
0.025662 -0.002256 -0.030914 -0.629766 0.148264 -0.762504
0.029706 0.022307 0.012525 -0.813418 -0.581336 -0.020007
-0.042500 -0.012430 0.006801 -0.945958 -0.324208 -0.007244
-0.006634 0.033417 -0.037373 0.040253 0.063608 0.997163
-0.004760 -0.039943 -0.017293 -0.057990 -0.998298 -0.006168
0.003335 0.002135 -0.037109 -0.011327 0.038391 -0.999199
-0.043382 0.002937 0.017729 0.998555 -0.052942 -0.009179
0.001905 0.039633 0.015254 -0.172610 -0.984990 -0.000314
0.036738 0.022135 0.039590 0.598664 0.316869 -0.735660
0.038309 0.000694 -0.023868 0.434737 -0.584831 0.684819
0.002986 -0.000586 -0.037164 -0.024928 -0.019310 -0.999503
-0.003628 -0.040117 0.001108 0.020703 -0.999747 0.008779
-0.008900 -0.008562 -0.037155 0.022585 -0.027423 -0.999369
0.007739 -0.038803 0.040660 -0.187073 0.721610 0.666546
-0.034845 0.026245 -0.031698 -0.778738 0.617803 -0.109028
-0.017301 0.036502 -0.032046 0.398354 -0.654838 -0.642262
0.027621 0.026633 -0.026557 0.781866 0.623443 -0.001949
-0.013768 0.045903 0.040559 -0.150208 0.983928 -0.096554
0.033884 0.021865 0.039488 0.333836 0.070061 -0.940024
0.014489 0.039016 0.041904 -0.151557 -0.302556 0.941005
0.061475 -0.008664 0.006735 -0.456306 -0.889694 -0.015160
0.037339 -0.001497 0.040511 -0.778873 0.038109 0.626022
-0.043066 0.005026 0.019899 0.992251 -0.121497 -0.026008
-0.037895 0.025705 0.039395 -0.462910 0.275527 -0.842496
-0.004669 -0.038869 0.008721 0.020602 0.999486 0.024575
0.025633 -0.011999 -0.037601 0.096502 -0.040121 0.994524
-0.032084 -0.028479 0.037949 -0.688899 -0.624520 -0.367958
0.020131 0.033052 -0.033647 0.575995 0.770246 -0.273773
-0.007858 -0.040005 0.020884 -0.119854 -0.992727 0.011330
0.022692 -0.036016 0.041949 0.271149 -0.408836 0.871396
-0.008070 0.041019 -0.022381 -0.118361 0.992921 0.009921
0.015505 -0.033889 0.003503 -0.462307 0.886687 -0.007648
-0.001421 -0.011106 -0.037127 -0.025573 0.042677 -0.998762
0.015834 0.014483 -0.036561 0.082764 0.039286 0.995795
-0.026434 0.018461 -0.027927 0.597375 -0.370863 -0.711058
-0.043685 -0.007690 0.025384 -0.980142 -0.197478 0.017982
0.006498 0.040203 0.017268 0.263915 0.964467 -0.012313
0.035244 0.013464 0.040578 -0.700370 -0.270424 0.660569
-0.031857 0.030432 -0.008635 -0.679505 0.733406 -0.019722
-0.010179 0.040744 -0.015349 -0.165865 0.986081 -0.011498
0.001836 0.001206 -0.037168 -0.048925 -0.020611 -0.998590
0.012309 0.036545 0.002997 -0.118638 -0.844193 0.522745
-0.010116 0.026026 -0.038027 0.037579 -0.101209 -0.994155
-0.044336 0.000550 -0.014179 -0.999947 -0.001641 -0.010179
0.016702 -0.034944 0.026885 0.493054 -0.869860 -0.015543
-0.020405 -0.032914 0.002637 0.414020 0.106138 0.904059
0.027670 -0.025402 -0.012177 0.783932 -0.620846 -0.001005
0.036074 0.010087 0.000233 0.974944 0.221360 -0.021998
0.034403 -0.014490 0.012310 0.924239 -0.381784 0.004802
-0.017360 0.037908 0.016800 0.322657 -0.946436 0.012300
-0.038698 -0.016538 -0.035992 -0.802229 -0.353325 -0.481238
-0.028457 -0.026518 -0.036352 -0.086337 -0.136063 0.986931
0.014690 -0.034629 0.033271 -0.482256 0.876026 0.002609
0.009274 -0.015029 -0.010629 -0.583189 0.717067 0.381712
-0.002021 -0.040242 0.025052 0.014189 -0.999512 0.027830
0.015012 -0.034448 0.028751 -0.417190 0.908762 -0.010220
0.024276 0.002335 -0.038228 -0.121563 -0.029359 -0.992149
0.057575 0.000822 -0.017970 0.627070 0.336318 -0.702619
0.021414 0.031306 0.011164 -0.629845 -0.776708 -0.004426
-0.006498 0.041549 0.031476 -0.076037 0.996961 -0.016914
-0.023394 0.034982 0.033931 0.558594 -0.829439 0.001934
-0.032398 -0.028133 0.030494 -0.688635 -0.725101 0.003179
-0.012062 -0.021435 -0.004760 0.288553 0.736813 0.611428
0.026368 0.026686 0.037248 -0.740472 -0.661140 0.120806
-0.034050 0.003145 -0.038477 0.107370 -0.018323 -0.994050
-0.033027 -0.025777 0.032721 0.731324 0.682013 -0.004898
-0.037135 0.024728 0.016722 -0.808540 0.588440 0.001231
0.026029 0.025987 -0.036067 0.636206 0.534051 -0.556804
0.063292 -0.004272 0.019658 0.906613 -0.186383 0.378570
0.036928 0.002859 -0.008070 0.998642 0.049177 -0.017170
0.060072 -0.003761 0.024427 0.690377 -0.202593 0.694504
0.058459 -0.005426 0.004118 -0.896623 -0.442452 0.017412
0.024180 -0.003770 -0.038278 -0.136240 0.012952 -0.990591
-0.022859 -0.011871 -0.022493 0.698037 0.546419 -0.462786
-0.035979 0.024942 -0.028446 -0.804099 0.593680 -0.031132
0.033909 0.015828 -0.026294 0.919502 0.392956 0.010060
0.032797 -0.018060 0.030540 0.884921 -0.465682 0.007398
0.046062 0.001975 0.029416 0.113863 0.309961 0.943906
-0.035420 0.019724 -0.037884 -0.358471 0.212161 -0.909113
0.056172 0.003550 -0.015987 -0.037389 0.986288 -0.160742
0.023216 0.029571 0.001397 -0.635768 -0.763420 0.113971
0.019833 0.032270 0.019729 -0.593641 -0.804709 -0.005806
-0.039583 0.000406 -0.033965 0.345407 0.241780 -0.906773
0.005578 0.040164 -0.021875 0.236274 0.971672 0.005240
-0.013574 0.038273 -0.036427 -0.214199 0.732653 -0.646018
-0.042211 0.011529 0.017379 0.976412 -0.185803 0.109989
-0.006472 -0.001029 -0.035734 0.033265 -0.009330 0.999403
0.006966 0.040184 0.034267 0.267033 0.963644 -0.009155
-0.038364 -0.015237 -0.037202 -0.628475 -0.255778 -0.734572
-0.022859 -0.011871 -0.022493 0.698037 0.546419 -0.462786
0.004256 -0.028306 -0.038464 -0.042437 0.124010 -0.991373
0.002130 0.036957 0.001282 -0.295200 -0.066752 0.953101
-0.017109 -0.036617 0.005208 0.320685 0.945448 0.057349
0.002553 0.016742 -0.037369 -0.038093 -0.040918 -0.998436
0.030408 -0.030956 0.040229 0.744976 -0.606911 -0.276892
-0.036440 0.010831 -0.038698 -0.102082 0.036498 -0.994106
-0.003866 -0.040259 0.018939 -0.008084 -0.999862 0.014496
0.035385 0.008830 0.013744 -0.975759 -0.218502 0.012277
0.030912 0.019300 -0.035685 0.735293 0.475754 -0.482704
0.032784 0.016010 0.003001 -0.741297 -0.444674 0.502736
0.007389 0.036579 -0.036237 -0.126235 -0.737702 0.663220
-0.035713 -0.007406 -0.038565 -0.003569 -0.023825 -0.999710
-0.008797 -0.039675 -0.003897 -0.108350 -0.994058 0.010422
0.026600 0.026359 0.009257 -0.737655 -0.674153 0.037169
-0.011619 0.039398 0.016497 0.208387 -0.977762 0.023582
-0.020207 0.043274 0.041723 -0.210112 0.544440 0.812058
-0.029838 0.010143 -0.038169 0.103811 -0.051290 -0.993274
0.001903 0.034498 -0.038791 0.031578 0.113027 -0.993090
-0.031581 -0.028189 -0.033116 -0.673629 -0.717669 -0.176568
-0.026184 0.018329 -0.038382 0.079373 -0.073153 -0.994157
0.015746 -0.034045 0.032293 -0.490812 0.870967 -0.022814
-0.015652 -0.024114 -0.037993 0.043226 0.112789 -0.992678
-0.044138 0.011333 0.039204 -0.570962 0.091942 -0.815812
0.025133 0.029772 0.022726 0.710982 0.703094 0.012762
-0.040901 -0.004669 0.002093 0.153353 0.266015 0.951693
-0.026575 0.033273 0.021307 0.530885 -0.845861 0.051764
-0.021824 -0.000452 -0.037383 0.061475 -0.004226 -0.998100
-0.044192 -0.000233 -0.030457 -0.996834 -0.017530 -0.077551
0.030518 0.022815 -0.010431 0.834451 0.550966 -0.011321
-0.011644 0.046291 0.041117 -0.192413 0.945361 0.263192
0.023952 0.030549 -0.009936 0.670960 0.741489 0.002574
-0.014521 -0.017330 -0.037435 0.042913 0.056148 -0.997500
0.012412 -0.035657 0.023490 -0.440095 0.897715 -0.020568
0.036831 0.004051 -0.002285 0.996249 0.084504 -0.018611
0.035920 -0.004020 0.031662 -0.990889 0.134168 0.011736
-0.026254 0.031881 -0.034398 0.563057 -0.825533 0.038228
0.026992 0.014288 -0.038871 0.004567 -0.003377 -0.999984
0.037217 0.021395 0.041409 0.735166 0.371820 0.566816
0.026465 -0.027120 0.027308 0.736081 -0.676884 -0.003485
0.006836 0.038831 0.020444 -0.301650 -0.952500 0.041844
0.007541 -0.018777 -0.037768 -0.043553 0.055287 -0.997520
0.002441 0.039851 0.031445 -0.133410 -0.990843 0.020770
-0.014209 -0.018956 -0.037527 0.045963 0.050661 -0.997658
-0.031409 0.006815 -0.038276 0.118534 -0.024017 -0.992659
-0.043149 0.004284 -0.034817 -0.923237 0.083310 -0.375091
0.008346 0.039884 0.035426 0.297586 0.946671 -0.123520
0.006334 0.040424 0.028056 0.222964 0.974727 -0.013954
0.003676 -0.003501 -0.037126 -0.034236 0.037943 -0.998693
-0.019400 0.037784 0.040220 0.186544 -0.784170 0.591844
0.020669 -0.032110 0.016527 0.601579 -0.798799 -0.004700
0.009106 -0.033147 0.001372 0.042293 0.241113 0.969575
-0.016806 -0.037255 0.039363 0.339317 0.876405 0.341729
0.016599 -0.033628 0.035567 -0.558126 0.827620 0.059501
0.035924 -0.000949 -0.034978 0.941595 -0.066869 -0.330043
0.024883 0.030229 0.037339 0.624539 0.689486 -0.366823
0.037237 0.004886 -0.024419 0.688482 0.639925 -0.341304
-0.029661 -0.030392 -0.024079 -0.633576 -0.773662 -0.005418
0.029078 -0.023998 0.029989 0.794388 -0.607241 -0.014321
-0.033390 -0.027311 -0.006667 -0.725613 -0.687457 -0.029805
-0.037302 0.026305 0.041883 0.274794 -0.202467 0.939944
0.003518 -0.039568 0.036915 0.153145 -0.961735 -0.227185
0.019659 0.034461 0.041059 -0.282196 -0.483117 0.828833
0.024541 0.012261 -0.038606 -0.106080 -0.024990 -0.994044
0.006947 0.020785 -0.036264 0.060992 0.075794 0.995256
0.008754 -0.016399 -0.037692 -0.066350 0.055604 -0.996246
0.054852 -0.006297 -0.019984 0.455639 -0.526806 -0.717543
-0.028768 0.029569 -0.033644 0.500562 -0.511408 -0.698498
0.030824 -0.019466 0.032944 -0.854832 0.518902 0.001474
0.023275 -0.032316 0.039333 0.335508 -0.369280 -0.866641
0.036066 -0.000847 0.009900 -0.999565 0.027600 -0.010411
0.035848 -0.010460 0.011050 0.963711 -0.265781 -0.024936
-0.034421 0.027751 -0.007268 -0.755201 0.654682 -0.032612
0.021934 -0.031162 0.004058 0.619892 -0.784685 0.001803
-0.020012 -0.036623 0.019760 -0.408480 -0.912642 -0.015100
0.058203 -0.005683 -0.002491 -0.916376 -0.373209 0.144808
-0.036790 -0.005934 -0.038612 -0.053137 -0.019395 -0.998399
0.035265 -0.008542 0.027813 -0.970697 0.240193 -0.007444
0.014019 -0.034771 0.006973 -0.446839 0.894061 0.031467
-0.022578 -0.027196 -0.038651 -0.002463 -0.008391 -0.999962
0.003703 -0.014002 -0.037421 -0.012202 0.036365 -0.999264
-0.024656 0.034503 0.039582 0.467318 -0.820326 0.329667
0.017879 0.027307 -0.038862 0.068817 0.071395 -0.995071
0.012034 0.038021 -0.018032 0.363682 0.931523 0.000745
0.026799 0.031121 0.042151 -0.130105 -0.177604 0.975464
-0.001084 0.041263 -0.012814 0.067621 0.997672 -0.008855
-0.041729 0.005170 -0.036780 -0.732302 0.129939 -0.668468
-0.041345 -0.006858 0.003272 0.611400 0.217630 0.760807
-0.036923 0.019506 -0.034541 0.820352 -0.467796 -0.328922
-0.021041 -0.035155 -0.034481 -0.380907 -0.872107 -0.307147
-0.032633 -0.025017 -0.036552 -0.592820 -0.506714 -0.625944
0.000914 0.039533 0.008199 -0.143252 -0.989117 0.033555
-0.030698 -0.029889 0.007238 -0.642039 -0.766666 -0.003197
0.035812 -0.004256 0.020153 -0.989101 0.147074 -0.006987
-0.044434 -0.001552 -0.003539 -0.997696 -0.067504 -0.006830
-0.014589 0.027406 -0.026142 0.305530 -0.641639 -0.703528
0.021671 0.023018 -0.037894 -0.099823 -0.099187 0.990049
-0.019420 0.017605 -0.036232 -0.078477 0.079407 0.993748
0.033111 0.015952 0.010832 -0.916298 -0.400423 -0.007632
-0.004759 -0.027291 -0.030379 0.016849 0.613689 -0.789368
-0.043978 0.007240 0.030385 -0.984974 0.172704 0.000301
0.011970 0.038100 -0.014385 0.370811 0.928410 -0.023542
-0.018082 0.016958 -0.012007 0.681734 -0.730837 0.033407
0.035723 -0.005876 0.028466 -0.985443 0.170001 -0.001655
-0.019181 0.014208 -0.037557 0.055812 -0.045644 -0.997397
0.036646 -0.004891 0.040091 -0.770994 0.104555 0.628201
0.015910 -0.021097 -0.038532 -0.092300 0.118224 -0.988688
0.063235 0.001753 -0.009575 0.783331 0.517899 -0.343763
0.057889 0.000768 0.026415 0.553964 0.209716 0.805694
-0.022864 0.002029 -0.037461 0.070670 -0.016669 -0.997360
-0.013284 -0.032056 -0.038676 -0.039689 -0.059716 -0.997426
-0.016072 -0.038016 -0.006421 -0.318575 -0.947651 -0.021616
0.004129 -0.005952 -0.037216 -0.022500 0.012691 -0.999666
0.008062 0.028297 -0.028225 -0.293694 -0.616283 -0.730711
0.021342 0.032780 -0.013897 0.607503 0.794238 -0.011203
-0.044858 -0.019954 0.040148 -0.487230 -0.241213 -0.839299
-0.032829 -0.026308 0.023374 0.730313 0.682510 -0.028700
0.028682 -0.024538 0.020332 0.788684 -0.614784 0.004219
0.032232 0.008038 -0.038298 0.451944 0.085238 -0.887965
0.009021 0.038256 0.026290 -0.318856 -0.947802 -0.001374
-0.005049 -0.025000 -0.037905 -0.005769 0.101497 -0.994819
-0.030918 -0.029552 -0.010685 -0.650716 -0.758904 -0.025167
-0.022933 -0.033500 0.003478 0.316062 0.687478 0.653819
0.018092 0.011117 -0.004711 -0.691523 -0.375739 0.616941
0.016959 -0.020371 -0.038571 -0.066726 0.090224 -0.993684
0.036659 -0.005436 0.001205 0.987396 -0.157619 -0.014345
0.021878 0.039535 0.040277 0.456767 0.864175 -0.211105
-0.035243 0.027120 0.029019 -0.771658 0.635713 0.020306
0.027502 -0.005680 -0.037485 0.007916 0.017665 0.999813
-0.035782 0.024628 -0.033182 -0.781974 0.577107 -0.235509
-0.020413 -0.012249 -0.036349 -0.024837 -0.046832 0.998594
0.003194 -0.028476 -0.037282 -0.077551 0.022973 0.996724
0.030336 0.012705 -0.033630 -0.382710 0.022606 -0.923592
0.026429 0.026373 0.026501 -0.747136 -0.664658 0.004076
0.022981 -0.014837 -0.038708 -0.128194 0.064799 -0.989630
0.040741 -0.005621 -0.021595 -0.349024 0.513560 0.783861
0.015727 0.025031 -0.038716 -0.053165 -0.055680 -0.997032
-0.039709 -0.003051 -0.034857 0.383555 -0.923373 0.016376
-0.030147 -0.002901 -0.037965 0.109104 0.002538 -0.994027
-0.022669 0.035777 -0.034391 -0.451667 0.829236 -0.329187
0.024156 0.000506 -0.001661 -0.459798 0.023668 0.887708
-0.029643 0.026355 -0.038195 -0.297674 0.311027 -0.902581
-0.004124 -0.038862 -0.000879 -0.138973 0.739636 0.658502
-0.044631 -0.018698 0.041928 -0.423789 -0.213395 0.880264
-0.038600 0.022262 0.027233 -0.858604 0.512596 0.006710
-0.014614 -0.037622 0.027183 0.249708 0.967612 0.037051
-0.002385 0.040195 0.016506 -0.081457 -0.996662 0.005448
0.010357 -0.035883 0.002214 -0.208903 0.729635 0.651147
0.001012 0.001895 -0.035708 0.021811 0.006238 0.999743
-0.029035 -0.030561 -0.032444 -0.633303 -0.756863 -0.161514
-0.047420 -0.012107 0.039580 -0.530256 -0.224398 -0.817603
0.021041 -0.031669 -0.003050 0.591382 -0.806324 0.010450
-0.037037 -0.020978 0.025768 0.837048 0.547045 -0.009602
0.005744 -0.043919 0.041837 0.190704 -0.610041 0.769078
0.019868 0.005746 -0.037965 -0.075921 -0.031183 -0.996626
0.026205 0.026487 0.000318 -0.701026 -0.401355 0.589471
0.035804 -0.002409 0.000159 -0.989089 0.081535 0.122696
0.063448 0.003736 0.003847 -0.142560 0.989783 0.002456
-0.001617 0.037358 -0.038277 0.014721 0.416151 -0.909176
-0.004418 0.041303 -0.011381 -0.016338 0.999821 -0.009528
0.046621 -0.007526 0.027460 0.067710 -0.630747 0.773029
0.059664 0.003312 0.014340 -0.640373 0.744969 -0.186930
-0.043495 0.009975 0.029689 -0.977135 0.212619 -0.000293
0.026434 -0.026916 -0.005259 0.730223 -0.683006 -0.016649
0.036071 -0.005054 0.038527 -0.979375 0.125580 0.158287
0.001580 -0.023467 -0.027831 -0.147288 0.732212 -0.664960
-0.005739 0.041533 0.001497 -0.056213 0.998324 -0.013742
-0.000448 -0.031070 -0.033547 -0.145761 0.705543 -0.693515
0.033099 -0.014199 0.003181 -0.795401 0.417098 0.439734
0.066295 -0.005150 0.003179 0.978583 -0.203669 -0.029908
0.018435 0.032962 -0.035936 0.455697 0.704297 -0.544340
-0.023310 -0.030308 -0.037066 0.301840 0.384119 0.872551
0.035922 0.012245 0.040814 -0.688989 -0.180652 0.701897
0.011231 -0.003753 -0.037437 -0.041647 0.019242 -0.998947
-0.035420 0.019724 -0.037884 -0.358471 0.212161 -0.909113
0.002473 -0.039546 -0.016415 0.159359 -0.987213 -0.004005
0.031315 0.019284 0.019308 -0.905871 -0.420403 -0.051564
0.004748 0.039231 0.018885 -0.196457 -0.979335 0.048037
0.064595 0.001517 0.015704 0.918564 0.294317 0.263852
0.003453 -0.004733 -0.037227 -0.017805 0.039960 -0.999043
-0.020854 0.035948 0.001763 0.579988 -0.705089 0.408000
-0.009038 0.012835 -0.035700 -0.021986 -0.007118 0.999733
0.017849 -0.032697 0.003488 -0.528508 0.848309 0.032412
-0.001858 0.041451 0.020461 0.030473 0.999491 -0.009440
-0.002983 0.025262 -0.037877 -0.004027 -0.085838 -0.996301
0.013066 -0.030473 -0.037639 -0.584336 -0.144146 0.798607
0.013028 -0.012070 -0.020128 -0.694385 0.654218 -0.299714
0.029992 0.031118 0.041905 0.376884 0.372415 0.848095
-0.007485 0.036108 -0.037146 0.105829 -0.330405 0.937887
0.037287 0.003314 0.032913 0.994612 0.039193 0.095973
0.035612 -0.004324 0.009863 -0.988831 0.135594 0.061871
-0.042617 0.013334 0.034241 -0.950139 0.311593 -0.012046
-0.030977 -0.035981 0.041638 -0.481888 -0.589031 0.648712
0.021414 0.031306 0.011164 -0.629845 -0.776708 -0.004426
-0.029840 0.031895 -0.020346 -0.634156 0.772962 -0.019387
0.034554 -0.012968 0.039647 -0.822515 0.278259 0.496026
0.031329 -0.020654 0.032388 0.852062 -0.523416 -0.005012
0.017071 -0.033047 0.005273 -0.496798 0.867569 -0.022708
0.033170 0.018415 -0.004650 0.887856 0.460115 0.002340
0.058239 -0.000183 0.008571 -0.919650 0.386849 -0.067756
0.038295 0.004203 0.029577 0.726357 0.297219 0.619731
0.039048 0.010560 0.042144 0.009550 0.038819 0.999201
-0.032378 -0.028457 0.008587 -0.684837 -0.728693 0.001944
0.051300 0.003787 -0.019038 0.026356 0.993901 0.107078
-0.038400 -0.023903 0.041796 0.214168 0.168429 0.962166
-0.009685 -0.036947 -0.035533 0.282638 0.897798 -0.337750
-0.000061 0.040130 0.025263 -0.086956 -0.996158 0.010345
0.028146 0.024587 0.036870 -0.816938 -0.576565 0.013591
0.043829 -0.004607 -0.025116 0.179993 -0.279282 -0.943188
-0.041099 0.014205 0.017004 0.928047 -0.371953 -0.019501
-0.019278 -0.007282 -0.037296 0.041535 0.006721 -0.999114
0.035509 0.012356 -0.001923 0.961915 0.272796 -0.017349
0.000972 0.041052 -0.020460 0.127535 0.991821 0.005113
-0.015494 -0.025832 -0.031247 0.283394 0.564171 -0.775499
-0.034014 0.028623 0.005932 -0.734765 0.678222 -0.011643
-0.037074 0.000811 -0.037334 0.074406 0.010592 0.997172
-0.016002 -0.000382 -0.037135 0.029799 0.004032 -0.999548
-0.027844 -0.021829 -0.038660 0.033207 0.045267 -0.998423
-0.003746 -0.040118 0.020762 0.006462 -0.999944 -0.008343
-0.043001 0.006354 0.018939 0.993058 -0.116323 -0.017444
-0.021631 0.026439 -0.029181 0.426179 -0.433827 -0.793830
-0.044513 -0.001454 0.020834 -0.998080 -0.060725 0.012170
-0.026668 0.033015 0.019564 0.526459 -0.849191 0.041417
0.008976 -0.015065 -0.037603 -0.045216 0.043489 -0.998030
0.036703 0.008193 0.030700 0.968194 0.250045 -0.008773
-0.023541 -0.034096 0.039924 0.432639 0.768149 0.471986
-0.047940 -0.009293 0.041820 -0.550129 -0.139921 0.823274
-0.006498 0.041549 0.031476 -0.076037 0.996961 -0.016914
0.007195 0.014489 -0.037500 -0.073644 0.011123 -0.997223
0.012701 -0.006820 -0.037541 -0.037242 0.035264 -0.998684
0.037182 -0.020128 0.041556 0.729290 -0.388240 0.563387
-0.037232 -0.021263 0.039556 0.780314 0.499109 0.376830
-0.018362 0.004719 -0.036079 -0.007359 0.037696 0.999262
-0.019105 0.038424 -0.013781 -0.370871 0.928338 -0.025355
0.017194 -0.034424 -0.006891 0.526597 -0.849621 -0.028984
-0.024926 -0.026055 -0.035509 0.642627 0.054295 -0.764253
0.022287 -0.030867 0.007034 0.611403 -0.791310 0.003919
0.017542 -0.032886 0.009236 -0.548678 0.835717 0.022992
0.028812 -0.018442 -0.037722 0.536744 -0.312945 -0.783564
0.032775 0.019106 -0.005944 0.875719 0.482410 -0.019911
0.018078 0.035016 -0.014384 0.542268 0.840143 -0.010272
0.004584 0.002760 -0.037156 -0.025555 0.013076 -0.999588
-0.003820 -0.002009 -0.035819 0.003462 0.011289 0.999930
-0.024780 0.000349 -0.010652 0.970934 0.001464 0.239343
-0.003800 0.039938 0.003077 -0.052040 -0.996505 0.065349
0.034649 0.015171 0.031869 0.923212 0.383054 -0.030821
-0.027652 -0.013665 -0.037101 -0.102285 -0.071382 0.992191
-0.002697 0.040072 0.022631 -0.020826 -0.998706 0.046402
-0.019408 0.044022 0.041467 -0.344495 0.770530 0.536290
0.008476 -0.000395 -0.037190 -0.031665 0.012471 -0.999421
0.034702 0.011554 0.038848 -0.924796 -0.242868 0.292862
0.010788 -0.036282 0.014831 -0.366444 0.930426 0.005153
0.016116 -0.011530 -0.036909 0.072341 -0.057096 0.995744
0.033281 -0.012493 0.001906 -0.630514 0.428209 0.647371
-0.020249 0.038513 0.037653 -0.405458 0.816464 -0.411085
-0.019669 0.005671 -0.037303 0.043972 -0.015852 -0.998907
-0.015723 0.035959 0.002199 0.100422 -0.469412 0.877250
0.027610 0.021701 -0.036084 -0.576820 -0.458468 0.676081
-0.011707 -0.039386 0.030684 -0.182968 -0.983042 -0.012279
