-0.042576 0.017599 0.002765 -0.969778 -0.243947 -0.004610
-0.021849 -0.025937 0.009939 0.005026 -0.029774 0.999544
-0.010371 0.036208 -0.018056 -0.022548 0.068468 -0.997398
-0.009099 -0.034380 0.009465 0.024790 -0.038728 0.998942
-0.004752 -0.045380 -0.004926 0.232773 -0.971403 -0.046831
0.027312 0.018186 -0.018221 -0.005824 0.003170 -0.999978
-0.024211 -0.049467 0.005549 0.331072 -0.929030 0.165212
0.020481 -0.018570 0.009661 -0.051305 -0.042387 0.997783
0.036109 -0.020130 0.009843 0.053129 -0.052757 0.997193
-0.025973 -0.007652 0.009938 -0.049096 -0.001760 0.998793
0.011412 -0.040015 0.007734 0.117291 -0.700257 0.704190
-0.018688 -0.048609 -0.008357 0.226843 -0.973730 -0.019809
0.012190 0.048979 0.002061 -0.224607 0.970674 0.085697
-0.012211 0.041931 0.008306 -0.132417 0.605103 0.785058
-0.025427 0.040136 -0.010905 -0.228847 0.942613 -0.243123
0.005696 -0.015222 -0.018440 0.000766 0.004098 -0.999991
-0.040308 0.009499 -0.014696 -0.974322 -0.224954 -0.009606
0.015312 -0.039085 0.007882 0.161575 -0.624518 0.764115
0.027188 0.037525 -0.002473 0.978728 0.203269 0.027810
0.004373 -0.001687 0.009822 0.013204 -0.013015 0.999828
-0.007136 -0.012342 0.010007 0.020502 0.011907 0.999719
-0.037010 0.035739 -0.016954 -0.166436 0.542405 -0.823466
-0.037087 0.021604 0.009534 -0.019156 -0.012973 0.999732
-0.003280 -0.006928 0.009978 0.035827 -0.014447 0.999254
0.027019 0.037879 0.002474 0.977420 0.210143 0.022148
0.015644 0.048798 -0.016538 -0.214184 0.843952 -0.491803
0.025078 -0.021120 -0.018340 0.020978 -0.024063 -0.999490
0.030326 0.019857 0.003950 0.989425 0.136293 0.049630
0.008181 0.006122 -0.018394 -0.005117 0.002449 -0.999984
-0.002216 -0.018268 0.009785 0.043595 -0.038888 0.998292
0.006921 -0.021272 0.009385 0.037386 -0.011009 0.999240
0.016450 0.049653 0.004398 -0.212924 0.960821 0.177444
0.011027 -0.016193 0.009429 -0.013379 -0.022460 0.999658
0.039081 -0.016236 0.000095 0.965701 0.259643 -0.002875
-0.005023 -0.023312 0.009753 0.018872 -0.000826 0.999822
-0.041395 0.014481 0.008544 -0.814013 -0.164552 0.557051
0.030583 0.022177 -0.010439 0.980400 0.193960 0.034579
0.003907 0.029852 0.009750 -0.027792 0.042950 0.998691
-0.028197 -0.012321 0.009688 -0.100429 -0.003564 0.994938
-0.029276 0.033140 0.009394 0.009070 0.072547 0.997324
-0.038925 0.004303 -0.017056 -0.792559 -0.165037 -0.587037
0.038527 -0.030635 -0.017760 0.019597 -0.199950 -0.979610
0.005254 -0.040400 0.008476 0.122663 -0.351939 0.927951
-0.030401 0.037727 -0.016206 -0.127880 0.944535 -0.302489
-0.001917 0.012603 -0.018388 -0.005990 0.003041 -0.999977
-0.018372 -0.016903 -0.018256 -0.020270 -0.002938 -0.999790
0.034982 -0.034435 -0.014179 0.223775 -0.958810 -0.174949
-0.007825 -0.023445 -0.018404 -0.010210 0.008095 -0.999915
-0.041608 0.014217 -0.005378 -0.970383 -0.240723 -0.020233
0.040483 -0.035247 -0.006275 0.235869 -0.971321 0.030017
-0.026937 -0.029820 0.009534 -0.185981 -0.042783 0.981621
-0.042331 0.017746 -0.012827 -0.970302 -0.241588 -0.012177
0.037460 -0.030776 0.009063 0.017787 -0.127976 0.991618
0.023948 0.038020 0.009313 0.041604 0.037091 0.998445
0.032902 0.008843 -0.005023 0.974485 0.205697 0.089823
0.026080 -0.034194 -0.017819 0.073625 -0.234461 -0.969333
0.012737 -0.024937 0.009208 0.010936 -0.030996 0.999460
0.042910 -0.034358 0.003510 0.908862 -0.405404 -0.098066
0.028407 0.031308 -0.016027 0.928435 0.219445 -0.299755
-0.027923 0.039738 -0.003944 -0.253872 0.966990 -0.021885
0.036638 -0.010931 -0.018313 0.323065 0.072661 -0.943583
-0.020050 -0.043035 -0.018429 -0.001066 0.025507 -0.999674
-0.007841 0.025630 -0.018239 -0.010438 0.009604 -0.999899
-0.035472 0.021597 0.009542 -0.022850 -0.006978 0.999715
0.027303 0.015354 0.010948 0.100609 0.135848 0.985608
0.032099 0.015764 -0.015403 0.970942 0.194314 -0.139693
0.028731 -0.027913 -0.018133 0.025446 -0.050898 -0.998380
-0.037082 -0.004615 0.004188 -0.968795 -0.247692 -0.009211
0.009865 0.038139 0.009543 -0.017819 0.057867 0.998165
0.033068 0.010613 -0.011984 0.976333 0.204057 0.071657
0.036011 -0.035565 0.003019 0.219346 -0.963399 0.154111
0.024544 -0.029831 0.009089 -0.014970 -0.078726 0.996784
0.004101 0.012489 0.010033 -0.039088 -0.005122 0.999223
-0.015295 -0.047729 0.000079 0.217376 -0.973981 0.064093
0.040096 -0.018422 -0.016094 0.940963 0.226733 -0.251358
0.023229 -0.037633 -0.012654 0.179747 -0.950905 -0.251932
0.039455 -0.020027 -0.018024 0.580811 0.113531 -0.806082
-0.030289 -0.031815 -0.010617 -0.973190 -0.226728 0.038682
-0.020116 0.038447 -0.017466 -0.036027 0.160799 -0.986329
-0.027416 -0.021200 0.009716 -0.096856 0.002093 0.995296
-0.015739 -0.000658 0.010299 0.001369 -0.017532 0.999845
0.014559 -0.026775 0.009097 0.014021 -0.045095 0.998884
-0.028731 0.010385 0.009908 -0.075346 -0.024393 0.996859
-0.038546 0.036826 0.005364 -0.197340 0.966203 0.165858
-0.019843 -0.048843 -0.010326 0.221478 -0.945929 -0.236992
0.021045 -0.019409 -0.018532 0.003265 -0.054971 -0.998483
0.004493 0.028505 -0.018262 -0.005658 0.016695 -0.999845
0.042409 -0.032366 -0.014871 0.735150 -0.664965 -0.131818
0.016648 -0.002721 0.010196 -0.054433 -0.044377 0.997531
0.031965 0.006927 0.008763 0.957239 0.236850 0.166119
0.018609 0.025929 0.010286 -0.002551 0.035194 0.999377
0.034925 -0.008537 -0.018317 0.004473 -0.009127 -0.999948
0.001519 -0.007791 -0.018424 -0.019819 0.000252 -0.999804
-0.033842 -0.016943 -0.009359 -0.969342 -0.245289 0.014499
0.031678 0.013937 -0.001685 0.979631 0.189321 0.066933
-0.041322 0.022423 0.009274 -0.057211 -0.019956 0.998163
-0.012253 0.007184 0.010232 0.019039 0.004044 0.999811
-0.037831 0.030604 0.009445 -0.005020 0.018653 0.999813
0.030885 0.008651 0.010443 0.757283 0.270489 0.594439
0.017437 0.023199 0.010335 -0.025979 0.020627 0.999450
-0.030858 0.038472 -0.011487 -0.208953 0.945737 -0.248839
0.027201 0.037001 0.004297 0.977496 0.209161 0.027452
0.037853 -0.011522 -0.017395 0.802532 0.204109 -0.560609
0.020585 -0.026089 0.009228 -0.025689 -0.052521 0.998289
-0.015334 -0.026577 -0.018345 -0.011293 0.023227 -0.999666
-0.022348 -0.000811 0.010180 -0.052877 -0.002349 0.998598
-0.022162 -0.010881 0.010066 -0.034566 -0.015382 0.999284
0.001302 -0.002266 0.009903 0.028987 -0.007229 0.999554
-0.014541 -0.046038 -0.016998 0.177747 -0.956737 -0.230350
-0.006556 0.044553 -0.009597 -0.235535 0.970950 -0.042184
-0.025335 0.022425 0.009863 0.009860 0.012476 0.999874
-0.004475 0.003334 0.010125 0.009081 -0.007026 0.999934
0.004522 -0.024419 -0.018468 0.001640 -0.005559 -0.999983
0.024895 0.028813 0.009699 0.102557 0.070981 0.992191
-0.044978 0.034818 -0.000100 -0.908413 0.414273 -0.056238
-0.044978 0.034818 -0.000100 -0.908413 0.414273 -0.056238
-0.024654 0.024173 0.009830 0.009413 0.022853 0.999695
-0.027055 -0.040043 -0.018277 0.001062 0.041482 -0.999139
-0.032893 0.036724 -0.016882 -0.204458 0.643021 -0.738052
-0.020550 0.031716 0.009468 0.005857 0.056831 0.998367
0.030290 0.022899 -0.006151 0.981667 0.186740 0.038195
-0.001769 -0.015274 -0.018421 -0.003921 0.006055 -0.999974
0.007487 0.018372 0.010133 -0.045049 0.003568 0.998978
0.016421 -0.037679 -0.017579 0.166762 -0.521852 -0.836577
-0.008340 -0.046142 -0.001544 0.210721 -0.975690 0.060216
-0.026213 0.038203 0.008900 -0.079455 0.433470 0.897658
0.035795 -0.016348 0.010020 0.053742 -0.021663 0.998320
0.020272 -0.020277 0.009560 -0.043540 -0.048836 0.997857
-0.005100 -0.030025 0.009522 0.023483 -0.011065 0.999663
0.030095 -0.023674 -0.018246 0.017003 -0.026783 -0.999497
0.007784 -0.038599 -0.018050 0.077364 -0.191635 -0.978412
0.028891 -0.009521 0.010434 0.027795 -0.041768 0.998741
-0.039959 0.023860 -0.017206 -0.033596 0.020848 -0.999218
-0.006640 0.017912 0.009972 0.023492 0.025661 0.999395
-0.043913 0.023277 -0.005132 -0.968820 -0.246992 -0.019556
0.038528 -0.034472 0.005095 0.222897 -0.937273 0.268024
-0.004475 0.003334 0.010125 0.009081 -0.007026 0.999934
0.028195 0.023693 0.009716 0.265366 0.141782 0.953666
0.037460 -0.030776 0.009063 0.017787 -0.127976 0.991618
-0.014691 0.002879 0.010260 0.004599 0.015389 0.999871
0.030361 -0.009209 0.010367 0.073575 -0.016934 0.997146
-0.031799 0.038514 0.004228 -0.267760 0.956267 0.117716
0.027026 0.012189 -0.018261 0.016373 0.002528 -0.999863
0.019541 -0.035182 0.008546 0.015590 -0.080848 0.996604
0.035610 -0.030648 0.009122 0.008091 -0.110512 0.993842
-0.031868 -0.002431 -0.017691 -0.047849 -0.001421 -0.998854
0.042027 -0.027749 -0.002078 0.970891 0.238269 0.024464
-0.031102 0.037448 -0.016561 -0.235710 0.845962 -0.478319
0.023617 0.040334 -0.018047 -0.041161 0.011892 -0.999082
-0.034877 0.029672 0.009594 -0.030744 0.021221 0.999302
0.025429 0.045296 -0.002789 0.969551 0.244561 0.012667
-0.031447 -0.028792 -0.016993 -0.956225 -0.183644 -0.227834
0.034224 0.000790 0.007123 0.917683 0.369886 -0.145059
0.025404 0.045483 -0.006994 0.970189 0.242046 0.012101
-0.006804 0.040527 -0.017673 -0.030151 0.068689 -0.997182
-0.018557 -0.038411 0.009345 0.052058 -0.052106 0.997284
0.003636 0.046934 -0.010260 -0.224538 0.971302 -0.078452
0.005477 -0.029060 -0.018438 -0.005081 -0.007425 -0.999960
-0.041468 0.013803 -0.006861 -0.970803 -0.239025 -0.020214
0.018491 -0.039916 -0.010460 0.199318 -0.908727 -0.366726
0.030927 0.014930 0.004955 0.983638 0.158792 0.085095
0.036382 -0.004511 0.008754 0.922283 0.223621 0.315260
0.007487 0.018372 0.010133 -0.045049 0.003568 0.998978
-0.003604 -0.045152 -0.003697 0.239485 -0.969742 -0.047405
-0.022522 -0.041677 -0.018414 -0.027666 -0.002186 -0.999615
0.013460 0.000183 -0.018412 -0.001402 0.001421 -0.999998
-0.023984 0.027815 -0.017857 -0.035446 0.030874 -0.998895
-0.001604 0.008385 -0.018369 -0.017384 0.003302 -0.999843
-0.004928 -0.043697 0.007788 0.158552 -0.727757 0.667256
-0.006483 -0.045638 0.001873 0.218213 -0.974692 0.048556
-0.031736 -0.004425 -0.017699 -0.057009 0.009977 -0.998324
-0.008202 0.043092 -0.015466 -0.229805 0.949878 -0.211949
-0.028803 -0.010295 0.009688 -0.115404 -0.025224 0.992998
0.026354 -0.036141 -0.016306 0.229494 -0.916450 -0.327800
0.008224 -0.001010 0.009892 -0.039344 -0.033481 0.998665
0.028687 0.000558 0.010739 0.105061 -0.063759 0.992420
0.017361 -0.040386 0.000753 0.209729 -0.976573 0.048160
0.001850 0.045710 -0.014873 -0.230862 0.961029 -0.152072
0.022449 0.013158 0.010844 -0.056442 0.030313 0.997946
0.002521 -0.025336 -0.018447 0.003114 -0.014585 -0.999889
-0.043649 0.022653 0.007996 -0.935094 -0.217488 0.279817
0.032733 -0.026030 0.009538 -0.009911 -0.076886 0.996991
-0.019329 -0.020251 0.010053 -0.002035 -0.011023 0.999937
-0.003694 0.041560 0.008759 -0.038190 0.086438 0.995525
0.011487 -0.023294 0.009257 0.008130 -0.022170 0.999721
-0.022012 -0.049608 -0.007892 0.211489 -0.975984 -0.052235
-0.007693 0.044501 0.004086 -0.221897 0.973099 0.061965
-0.039559 0.016019 0.009247 -0.066766 -0.005397 0.997754
-0.025300 0.002655 0.009988 -0.071630 -0.009923 0.997382
-0.044488 0.025281 -0.000577 -0.969368 -0.245254 -0.013266
0.002161 0.046632 0.004359 -0.204040 0.972206 0.114822
-0.005591 -0.031218 0.009522 0.028047 -0.028415 0.999203
0.036130 -0.022658 -0.018161 0.002012 -0.024611 -0.999695
-0.037701 -0.002120 -0.015483 -0.975179 -0.219072 -0.032132
0.031696 0.000005 -0.018281 -0.003851 0.017221 -0.999844
0.010285 0.039060 0.009518 -0.010272 0.049875 0.998703
0.026407 0.034061 -0.018094 0.230859 0.071262 -0.970374
0.027712 0.036018 -0.014702 0.972897 0.220048 -0.071066
0.012774 -0.041273 -0.009976 0.226144 -0.952645 -0.203288
-0.026663 -0.019104 0.009776 -0.107052 0.003309 0.994248
0.004975 0.028734 0.009849 -0.028656 0.034149 0.999006
0.032109 0.014646 -0.010416 0.971380 0.232136 0.050341
-0.007367 -0.036286 0.009334 0.025520 -0.058205 0.997978
-0.015160 -0.045703 -0.018060 0.167827 -0.687678 -0.706352
0.007701 -0.042413 -0.005247 0.225093 -0.972934 -0.052272
0.007083 0.046820 0.007862 -0.176034 0.848727 0.498672
-0.043013 0.019415 0.001454 -0.968897 -0.247364 -0.007092
-0.008106 -0.011539 0.009969 0.013371 -0.010538 0.999855
0.017177 0.050330 -0.003245 -0.234075 0.972214 -0.002996
0.014981 0.033006 -0.018191 0.001222 0.017798 -0.999841
0.028584 0.018061 -0.018247 0.007347 0.001896 -0.999971
-0.021849 -0.025937 0.009939 0.005026 -0.029774 0.999544
0.030268 -0.026725 0.009403 -0.021850 -0.080029 0.996553
-0.036335 -0.007356 -0.000768 -0.969337 -0.245242 -0.015564
0.011850 0.039024 0.009511 -0.018279 0.055098 0.998314
-0.025973 -0.007652 0.009938 -0.049096 -0.001760 0.998793
0.028289 0.033422 -0.015158 0.968506 0.192194 -0.158296
-0.026991 -0.032936 0.009283 -0.199154 -0.061823 0.978016
0.008519 -0.007023 0.009704 -0.018586 -0.036769 0.999151
0.030709 0.016613 0.004579 0.987207 0.139764 0.076733
-0.006023 0.027498 0.009589 0.009087 0.049829 0.998716
0.042459 -0.030831 -0.000765 0.980836 -0.190027 -0.043014
0.006876 0.001836 0.009942 -0.030349 -0.025415 0.999216
-0.029398 0.022479 0.009799 -0.027593 0.021489 0.999388
0.024208 0.048770 0.008292 0.872223 0.326910 0.363809
0.028176 0.033311 -0.006912 0.977253 0.211838 0.010032
-0.040472 0.026194 0.009454 -0.055889 -0.016097 0.998307
-0.028673 -0.017779 0.009566 -0.098769 -0.002782 0.995106
0.031485 0.018369 -0.015691 0.951313 0.245162 -0.186813
0.035671 -0.002285 0.007897 0.938387 0.336973 -0.076671
0.009808 0.018963 0.010188 -0.023271 0.014275 0.999627
0.030604 0.019222 0.000365 0.987830 0.144694 0.057059
-0.002002 -0.037808 0.009064 0.044086 -0.070142 0.996562
0.014474 -0.020577 -0.018556 0.012754 -0.004479 -0.999909
-0.009759 0.031447 -0.018110 -0.011020 0.026841 -0.999579
-0.020142 -0.048073 -0.011903 0.236199 -0.926169 -0.293975
0.021044 0.045424 -0.017962 -0.014467 0.058163 -0.998202
0.034468 -0.024262 0.009685 -0.000637 -0.063046 0.998010
0.022115 -0.003848 -0.018401 0.002699 0.003457 -0.999990
0.010741 0.048639 0.002125 -0.217535 0.972773 0.079943
0.016342 0.013590 0.010486 -0.046328 -0.000130 0.998926
-0.012816 -0.043817 0.008738 0.063512 -0.243126 0.967913
0.028961 0.028140 0.003551 0.983924 0.177017 0.023620
0.005670 -0.042082 0.006197 0.225555 -0.936562 0.268284
-0.030858 0.038472 -0.011487 -0.208953 0.945737 -0.248839
0.025060 0.032288 -0.018133 -0.013486 0.013171 -0.999822
-0.019057 -0.037371 -0.018393 -0.013715 0.010782 -0.999848
0.021509 0.004013 0.010694 -0.062695 -0.034422 0.997439
0.032832 0.012175 -0.012999 0.977925 0.202580 0.051230
0.032547 0.010376 -0.004748 0.978663 0.187024 0.085090
-0.030267 -0.031523 -0.003664 -0.974141 -0.225745 -0.009458
-0.044462 0.034939 -0.014400 -0.276391 0.954845 -0.108995
0.004379 -0.035929 0.008958 0.029091 -0.068035 0.997259
-0.034059 0.023765 0.009614 -0.041690 -0.010888 0.999071
0.021811 -0.018710 -0.018595 0.002639 -0.074084 -0.997249
-0.041395 0.014481 0.008544 -0.814013 -0.164552 0.557051
0.026514 -0.032186 0.008906 -0.010084 -0.100849 0.994851
0.026959 -0.036086 -0.016013 0.201045 -0.942233 -0.267915
0.017841 -0.028278 0.009068 -0.024614 -0.062870 0.997718
-0.017515 -0.035875 -0.018405 -0.010768 0.009127 -0.999900
-0.019838 0.009677 0.010152 -0.021577 0.008436 0.999732
0.037163 -0.031983 -0.017499 0.115569 -0.361553 -0.925161
-0.008098 -0.042117 0.008766 0.037659 -0.181172 0.982730
-0.024218 0.039006 -0.016846 -0.189115 0.767192 -0.612904
-0.044229 0.035495 -0.004704 -0.839399 0.541600 -0.045604
0.026078 0.042944 -0.012598 0.974944 0.221082 0.024619
-0.030696 0.001414 0.009585 -0.079084 -0.001152 0.996867
0.000964 -0.043878 0.002757 0.224569 -0.971492 0.075972
0.039391 -0.020942 -0.018143 0.419571 0.079519 -0.904233
-0.010238 -0.030473 -0.018420 -0.006642 0.008935 -0.999938
-0.016210 0.034942 -0.017931 -0.054039 0.053414 -0.997109
0.040017 -0.017870 -0.014381 0.972680 0.230974 0.023317
-0.018616 -0.048139 -0.011169 0.189860 -0.901222 -0.389553
-0.001262 -0.036451 -0.018332 0.020331 -0.042932 -0.998871
-0.019433 -0.034035 -0.018359 -0.018749 0.014407 -0.999720
0.014720 0.017515 0.010387 -0.036761 0.017137 0.999177
-0.030470 -0.030603 -0.005793 -0.973815 -0.227329 0.002421
0.006451 -0.010141 0.009639 0.022066 -0.023182 0.999488
0.037571 -0.010452 -0.017287 0.824893 0.213617 -0.523373
-0.032027 0.017011 -0.017716 -0.043962 0.007181 -0.999007
0.024136 -0.030608 -0.018084 0.026245 -0.060895 -0.997799
0.005946 -0.037225 0.008815 0.031622 -0.088161 0.995604
-0.032360 -0.010059 0.009283 -0.084435 -0.015731 0.996305
0.005241 -0.021558 -0.018458 -0.019813 -0.009161 -0.999762
-0.039158 0.013958 0.009262 -0.061495 -0.026455 0.997757
-0.033982 -0.016613 0.007281 -0.959751 -0.238345 0.148556
0.041788 -0.032073 -0.001877 0.982367 -0.184480 -0.030365
0.011472 0.048009 0.006618 -0.216093 0.946013 0.241586
-0.010092 0.038601 -0.017744 -0.042262 0.112123 -0.992795
0.023939 0.049416 -0.004286 0.620957 0.782974 0.036925
-0.024724 -0.048333 -0.007682 -0.694734 -0.718978 0.020397
0.014160 0.049058 0.004877 -0.212526 0.957621 0.194407
0.022471 0.043969 0.009172 -0.007748 0.041239 0.999119
-0.012935 0.042631 0.006814 -0.229199 0.896331 0.379551
0.034054 0.003593 -0.005380 0.970971 0.226168 0.077873
-0.001117 -0.044388 -0.008061 0.223852 -0.974540 -0.012689
-0.029157 0.039509 -0.000712 -0.235807 0.971740 0.010785
0.023141 0.027536 -0.018198 0.013882 0.013106 -0.999818
-0.042865 0.034031 -0.016934 -0.166997 0.306681 -0.937048
0.003523 -0.020786 0.009504 0.025093 -0.006247 0.999666
-0.025497 -0.049058 -0.016648 0.046928 -0.988511 -0.143682
-0.021221 -0.017874 -0.018187 -0.027182 -0.004859 -0.999619
0.001933 0.045899 0.007111 -0.200500 0.933361 0.297718
-0.016015 -0.033741 -0.018392 -0.009696 0.009436 -0.999908
0.018160 0.007319 0.010550 -0.059386 -0.012254 0.998160
0.025892 0.043328 -0.002813 0.974511 0.223809 0.015413
-0.012993 0.002757 0.010283 -0.004822 0.004726 0.999977
0.023750 0.049392 0.002859 0.760172 0.632900 -0.146887
-0.034059 0.023765 0.009614 -0.041690 -0.010888 0.999071
0.026790 0.001419 -0.018335 0.011123 0.009879 -0.999889
-0.037590 0.024675 0.009543 -0.010188 0.003052 0.999943
0.032369 0.010410 -0.018012 0.600445 0.143393 -0.786705
-0.033444 0.038294 0.000611 -0.236310 0.970194 0.053677
-0.031833 0.025465 0.009716 -0.017186 0.005498 0.999837
-0.016426 -0.047078 0.006493 0.217938 -0.936961 0.273141
0.039041 -0.017169 -0.017609 0.849927 0.135030 -0.509304
-0.008695 -0.016882 0.009984 0.030074 -0.020683 0.999334
0.024767 -0.005296 -0.018432 -0.016539 0.005282 -0.999849
-0.037638 -0.002283 0.001918 -0.969930 -0.242840 -0.016277
0.023328 -0.015982 -0.018545 -0.012228 0.057657 -0.998262
-0.026327 -0.026582 0.009708 -0.100220 -0.029936 0.994515
-0.031828 0.038846 -0.003470 -0.238015 0.971194 -0.011466
0.002022 -0.007179 0.009824 0.033741 -0.020012 0.999230
0.032845 0.010470 -0.008102 0.976996 0.198621 0.077643
0.027048 -0.037893 0.003070 0.234824 -0.959253 0.157136
0.008176 0.046376 -0.017354 -0.142818 0.582104 -0.800474
0.020323 0.023666 -0.018272 0.011084 0.009734 -0.999891
-0.018857 0.022917 0.009871 -0.012658 0.051785 0.998578
0.035260 -0.019664 -0.018219 0.001785 -0.010480 -0.999943
-0.026915 -0.046173 0.006242 -0.949083 -0.313395 0.032017
-0.025424 -0.046738 0.008906 -0.258438 -0.032490 0.965481
-0.000938 -0.026340 -0.018443 0.000936 -0.019004 -0.999819
-0.045956 0.035034 0.005551 -0.756751 0.649294 0.075801
0.001250 -0.043958 -0.004649 0.225257 -0.973549 -0.038240
-0.045700 0.030509 -0.005641 -0.984866 -0.170070 -0.033388
0.038133 -0.010499 -0.015928 0.945094 0.236716 -0.225308
0.030638 0.021091 -0.006350 0.983189 0.177467 0.042963
-0.025300 0.002655 0.009988 -0.071630 -0.009923 0.997382
0.016344 -0.034772 -0.018036 0.027198 -0.043364 -0.998689
-0.020988 -0.000469 0.010233 -0.027447 -0.001986 0.999621
0.008268 0.041401 -0.018016 -0.004524 0.055013 -0.998475
-0.028195 -0.040450 -0.009969 -0.968901 -0.244701 0.036775
0.034708 0.000595 -0.018004 0.660102 0.143868 -0.737271
-0.008813 -0.027798 0.009678 0.033606 -0.060870 0.997580
0.015708 0.044792 0.009123 -0.002874 0.087290 0.996179
0.026476 -0.015089 -0.018496 0.000671 0.052980 -0.998595
0.028587 0.030195 0.004298 0.981964 0.187537 0.024011
-0.005612 -0.043870 -0.017005 0.237297 -0.911841 -0.335017
-0.028841 -0.020553 0.009555 -0.141027 -0.004959 0.989993
0.009754 0.044627 0.009016 -0.031750 0.095225 0.994949
-0.034717 0.026863 0.009619 -0.050126 0.005751 0.998726
0.005489 -0.022222 0.009432 0.037043 -0.021472 0.999083
0.031829 -0.032626 -0.017762 0.073674 -0.204613 -0.976066
0.018381 -0.036195 0.008499 0.015105 -0.103881 0.994475
0.026460 0.041413 -0.015459 0.964218 0.185353 -0.189544
-0.035278 -0.011533 0.000917 -0.967957 -0.250644 -0.015380
-0.021810 -0.048719 0.004606 0.283781 -0.946849 0.151477
-0.036819 0.037344 0.003428 -0.264231 0.957054 0.119285
-0.027173 0.039514 0.005350 -0.240898 0.958764 0.150798
-0.001603 0.016627 0.009895 0.012067 0.019239 0.999742
-0.025528 -0.023879 0.009843 -0.066876 -0.014350 0.997658
0.037404 -0.034466 -0.010999 0.116292 -0.724775 -0.679100
-0.038126 0.020335 -0.017378 -0.056821 0.012450 -0.998307
0.025854 -0.038326 -0.004919 0.224747 -0.974415 -0.001907
-0.009850 0.043724 0.006083 -0.216745 0.930853 0.294168
-0.013754 -0.005882 0.010252 0.014645 -0.015596 0.999771
0.007511 0.024192 0.010025 -0.022605 0.026186 0.999401
0.028146 0.016541 -0.018228 -0.011759 -0.003160 -0.999926
-0.007763 0.021373 0.009873 0.012847 0.037782 0.999203
0.003530 -0.043265 0.003296 0.210112 -0.967894 0.137961
0.026929 0.030891 0.009465 0.272570 0.063479 0.960040
0.039588 -0.026601 -0.018078 0.034689 -0.040750 -0.998567
-0.008107 -0.037223 -0.018430 0.014264 -0.004147 -0.999890
0.001925 0.027204 0.009782 -0.037319 0.020256 0.999098
-0.008543 0.023342 0.009828 0.011989 0.039810 0.999135
0.006975 -0.023885 0.009348 0.031617 -0.016209 0.999369
-0.018121 -0.030454 -0.018323 -0.014192 -0.010282 -0.999846
-0.029027 -0.036765 -0.001333 -0.972769 -0.231756 -0.003002
-0.025982 -0.048058 0.008486 -0.651445 -0.372312 0.661062
-0.018550 0.009798 0.010200 -0.012671 0.004513 0.999910
0.034499 -0.003272 -0.018345 0.173455 0.029236 -0.984408
0.012806 0.042202 0.009293 -0.007754 0.076234 0.997060
-0.011314 0.003010 0.010258 0.020866 -0.000520 0.999782
-0.027310 0.032644 -0.017652 -0.035675 0.024406 -0.999065
-0.025467 -0.047623 -0.004412 -0.752573 -0.658460 0.008097
-0.002998 -0.042454 -0.017937 0.134594 -0.521219 -0.842742
0.027220 0.024341 -0.018219 0.001496 0.001225 -0.999998
0.018303 0.050595 -0.001924 -0.241337 0.970321 0.015246
0.020068 0.022883 0.010425 -0.007894 0.032482 0.999441
-0.013015 0.000960 -0.018284 -0.013489 0.003232 -0.999904
0.001407 0.042327 0.008935 -0.038960 0.091165 0.995073
0.040489 -0.021453 -0.000210 0.968526 0.248911 0.000396
0.025168 0.046391 -0.005830 0.967142 0.253929 0.012492
-0.024724 -0.048333 -0.007682 -0.694734 -0.718978 0.020397
0.042505 -0.032046 0.008540 0.435185 -0.466624 0.769984
0.000532 0.034793 0.009425 -0.059103 0.050865 0.996955
-0.007984 0.013602 0.010087 -0.003079 0.023101 0.999728
-0.039773 0.035508 0.008787 -0.100767 0.727684 0.678470
-0.009715 0.032395 0.009359 0.012065 0.063892 0.997884
0.026476 0.021898 0.010030 0.093470 0.121287 0.988207
0.035362 -0.034898 -0.011042 0.278273 -0.713849 -0.642638
0.003318 0.046910 -0.007343 -0.221919 0.974857 -0.020137
-0.020464 0.013624 -0.018103 -0.024770 0.002448 -0.999690
-0.025370 0.004265 0.010013 -0.069269 -0.010972 0.997538
0.030973 -0.015437 -0.018472 0.017240 0.000235 -0.999851
-0.030513 -0.030630 -0.009170 -0.973357 -0.227383 0.029541
-0.022216 0.007880 0.010176 -0.027122 0.006025 0.999614
-0.032681 -0.021488 -0.008117 -0.969116 -0.246093 0.015904
-0.011509 -0.046008 -0.012067 0.205932 -0.929452 -0.306123
0.020217 0.050516 0.004542 -0.235059 0.956712 0.171609
0.036375 -0.003913 -0.011871 0.968603 0.237293 0.074164
0.037281 -0.007931 -0.010758 0.968990 0.237780 0.067226
-0.017538 -0.000196 0.010272 -0.007398 -0.005975 0.999955
-0.043686 0.034908 0.008394 -0.138415 0.835096 0.532405
0.029601 0.025294 -0.000638 0.983516 0.178206 0.030648
-0.021848 0.013468 -0.018061 -0.031098 0.002588 -0.999513
-0.036829 0.001139 0.008995 -0.219499 -0.071714 0.972973
-0.013471 -0.046186 -0.014197 0.240429 -0.960651 -0.139081
0.011819 -0.038978 0.008305 0.080016 -0.355867 0.931105
0.011851 0.043238 0.009205 -0.007513 0.084723 0.996376
-0.024260 0.007656 0.010101 -0.034823 0.003119 0.999389
-0.001324 -0.010493 0.009860 0.022913 -0.005020 0.999725
-0.016407 0.039473 0.008862 0.001541 0.125127 0.992140
0.001250 -0.043958 -0.004649 0.225257 -0.973549 -0.038240
-0.005435 -0.006120 0.010058 0.031530 -0.006024 0.999485
0.035545 -0.000155 -0.012673 0.972370 0.221517 0.073666
0.023331 0.017529 -0.018282 0.012208 0.005297 -0.999911
-0.045956 0.035034 0.005551 -0.756751 0.649294 0.075801
-0.026986 0.017267 0.009929 0.000212 0.017195 0.999852
-0.032399 -0.012191 0.009263 -0.113404 -0.033378 0.992988
0.013004 0.041135 0.009369 -0.012372 0.103885 0.994512
-0.003018 0.008044 0.010059 0.022721 0.013343 0.999653
-0.019616 0.040747 -0.012672 -0.230509 0.947357 -0.222215
-0.020982 0.023560 0.009828 -0.006850 0.044386 0.998991
0.030732 0.015943 -0.018229 0.425856 0.096023 -0.899681
-0.040230 0.011794 -0.017338 -0.532617 -0.132858 -0.835863
0.011491 0.048942 0.000281 -0.225135 0.973007 0.050714
0.029164 0.028483 -0.015877 0.936189 0.191243 -0.294916
0.026514 -0.032186 0.008906 -0.010084 -0.100849 0.994851
0.040398 -0.034123 -0.010610 0.528735 -0.671840 -0.518720
0.029139 0.012189 -0.018237 -0.011762 -0.004803 -0.999919
0.007530 -0.001889 0.009829 -0.027402 -0.026336 0.999278
-0.037209 0.002301 0.009016 -0.247276 -0.047444 0.967783
-0.029881 -0.006954 -0.017791 -0.048399 0.004533 -0.998818
0.023672 -0.038893 0.001305 0.245542 -0.967522 0.060086
-0.027890 0.014161 0.009962 -0.015825 0.006793 0.999852
-0.018960 0.003986 0.010242 -0.012977 0.004255 0.999907
0.018753 0.045695 0.009076 -0.028454 0.074121 0.996843
0.017654 0.039025 -0.018049 -0.006758 0.023270 -0.999706
-0.019118 -0.046594 -0.018129 0.146002 -0.571644 -0.807407
-0.023766 -0.010254 0.010047 -0.030341 -0.011284 0.999476
-0.010489 0.041050 0.008668 0.021538 0.180556 0.983329
-0.002622 -0.038027 -0.018298 0.030014 -0.009522 -0.999504
-0.006540 0.033403 0.009250 0.002607 0.068509 0.997647
-0.017894 0.005505 0.010254 -0.008842 0.012541 0.999882
0.024829 -0.001464 -0.018378 0.005929 0.006853 -0.999959
0.026476 -0.015089 -0.018496 0.000671 0.052980 -0.998595
0.003702 -0.001454 -0.018387 0.009301 0.002814 -0.999953
-0.008797 0.028003 -0.018205 -0.004056 0.016505 -0.999856
-0.018401 -0.043398 0.008880 0.017590 -0.099905 0.994841
-0.015864 0.041769 -0.011911 -0.235474 0.919647 -0.314329
-0.021147 0.032656 -0.017840 -0.028804 0.002584 -0.999582
-0.000910 -0.031641 -0.018435 0.002713 -0.006808 -0.999973
-0.043710 0.022339 -0.003555 -0.968911 -0.246916 -0.015600
0.001494 -0.006339 -0.018414 -0.018953 0.003721 -0.999813
0.014097 0.048524 0.006802 -0.209304 0.950934 0.227853
0.032440 0.008288 0.001289 0.973468 0.197944 0.114799
-0.028907 0.035997 -0.017410 -0.059491 0.124292 -0.990461
-0.000215 -0.005180 -0.018394 -0.007328 0.001979 -0.999971
0.037346 -0.009015 -0.016991 0.897431 0.200927 -0.392742
-0.016442 0.034009 -0.017932 -0.043041 0.028575 -0.998665
-0.032360 -0.010059 0.009283 -0.084435 -0.015731 0.996305
-0.000119 0.026870 0.009695 -0.043907 0.022160 0.998790
0.011561 0.031730 0.009936 -0.021460 0.031734 0.999266
-0.029930 -0.034305 -0.015411 -0.968090 -0.237871 0.078864
0.022509 0.021622 -0.018274 0.012639 0.008199 -0.999887
-0.034528 0.037624 0.006115 -0.236483 0.952960 0.189584
0.029462 0.027040 -0.005233 0.982731 0.184098 0.018633
0.030073 0.021101 0.005430 0.985818 0.157369 0.058297
-0.018951 -0.034527 0.009494 0.007278 -0.051381 0.998653
-0.016905 -0.025752 0.009894 -0.002947 -0.045619 0.998955
-0.044458 0.027182 0.008793 -0.729275 -0.192096 0.656702
0.001727 -0.037559 0.008921 0.033019 -0.082256 0.996064
-0.017191 -0.046176 -0.018200 0.192899 -0.584507 -0.788125
-0.020429 -0.048656 0.002266 0.233780 -0.964464 0.123111
0.027700 0.035224 -0.001798 0.974774 0.220922 0.031775
-0.017910 -0.048383 -0.010204 0.224757 -0.953556 -0.200540
0.009348 -0.017986 0.009392 0.013033 -0.018036 0.999752
-0.027616 -0.042428 -0.004453 -0.970650 -0.240064 -0.014423
-0.022459 0.032507 0.009444 0.004970 0.059089 0.998240
0.018576 -0.024044 0.009293 -0.036679 -0.065935 0.997150
-0.001113 0.039253 -0.017926 -0.019916 0.078917 -0.996682
-0.038382 0.010806 -0.017497 -0.019230 0.009807 -0.999767
-0.030660 -0.018168 -0.017859 -0.019537 0.006695 -0.999787
-0.001077 -0.019074 0.009674 0.044697 -0.042621 0.998091
0.022629 -0.000636 -0.018391 0.004470 0.003492 -0.999984
-0.045501 0.030663 0.008688 -0.809929 -0.213591 0.546254
0.018105 -0.026657 0.009159 -0.031601 -0.046590 0.998414
0.012217 -0.031916 0.008938 0.025430 -0.043033 0.998750
-0.019505 0.023180 -0.018078 -0.025800 0.013615 -0.999574
0.024749 0.047937 -0.004099 0.939965 0.341006 0.013431
-0.028639 0.039184 0.005185 -0.225116 0.962322 0.152510
0.033584 0.005242 -0.004326 0.972777 0.217712 0.079411
0.011850 0.039024 0.009511 -0.018279 0.055098 0.998314
0.005768 0.042142 0.009121 -0.043648 0.098125 0.994216
-0.019555 -0.022426 -0.018241 -0.020949 0.002439 -0.999778
0.025584 0.037237 0.009334 0.250548 0.092820 0.963644
0.039289 -0.015322 -0.013142 0.966822 0.246000 0.068837
0.034857 -0.001234 0.000307 0.961355 0.268720 0.059884
-0.038140 0.037356 -0.004652 -0.194462 0.980909 0.001617
-0.036581 -0.006650 0.006081 -0.967017 -0.250482 0.046234
0.003962 0.033182 0.009656 -0.031321 0.044346 0.998525
0.014424 -0.038938 -0.016937 0.199643 -0.823525 -0.530990
0.005445 -0.023175 -0.018464 -0.009933 -0.001022 -0.999950
0.028861 0.029350 0.000464 0.983338 0.177804 0.037833
-0.032805 0.014973 0.009635 -0.052663 -0.017162 0.998465
0.016932 0.024274 0.010321 -0.024426 0.016082 0.999572
-0.024122 -0.033374 0.009553 -0.024625 -0.062397 0.997748
0.005326 0.031554 -0.018207 -0.005971 0.020978 -0.999762
0.027999 -0.007243 0.010554 0.019447 -0.031379 0.999318
0.007920 -0.025414 0.009302 0.026560 -0.029136 0.999223
0.026000 0.017410 0.010672 0.002403 0.136001 0.990706
-0.019993 -0.045124 -0.018467 0.028728 -0.064344 -0.997514
0.008225 0.047257 0.006814 -0.187818 0.945433 0.266236
0.024389 0.040844 -0.018076 0.218745 0.066515 -0.973513
0.031438 0.017373 -0.009102 0.978359 0.197623 0.061310
0.028605 0.002148 -0.018303 0.016995 0.012131 -0.999782
0.000754 0.028779 -0.018233 -0.004664 0.015251 -0.999873
-0.015755 -0.023517 -0.018326 -0.019786 0.009303 -0.999761
0.002013 -0.016977 0.009602 0.024586 -0.030677 0.999227
-0.026937 -0.029820 0.009534 -0.185981 -0.042783 0.981621
0.008468 -0.000011 -0.018403 0.000231 0.003140 -0.999995
-0.006159 -0.027740 -0.018447 -0.001097 0.001205 -0.999999
-0.044800 0.027931 -0.015655 -0.941395 -0.197539 -0.273411
0.028687 0.000558 0.010739 0.105061 -0.063759 0.992420
0.024645 0.048524 -0.007536 0.932441 0.360906 0.017326
-0.008932 -0.010107 0.010061 0.026328 -0.047097 0.998543
0.002045 -0.019852 0.009536 0.024625 -0.003722 0.999690
-0.038779 0.002227 0.003945 -0.971848 -0.235226 -0.013453
-0.010025 0.026000 -0.018211 -0.009109 0.006108 -0.999940
-0.030348 -0.032813 -0.015989 -0.979311 -0.202243 -0.006884
0.014568 -0.039628 -0.013017 0.239107 -0.959922 -0.146213
0.010746 0.000339 0.010010 -0.046451 -0.029923 0.998472
-0.028145 -0.026901 -0.017996 -0.025494 0.016668 -0.999536
0.042926 -0.030837 -0.015288 0.970495 -0.228296 -0.077590
-0.027315 -0.017843 0.009709 -0.106307 -0.005277 0.994319
0.010700 -0.002064 0.009950 -0.040589 -0.030220 0.998719
0.009587 -0.037931 0.008597 0.050519 -0.133686 0.989735
-0.026523 -0.006613 0.009908 -0.063624 -0.004785 0.997962
0.030114 0.008687 0.011133 0.446722 0.119254 0.886689
-0.025982 -0.048058 0.008486 -0.651445 -0.372312 0.661062
-0.007293 0.010972 -0.018307 -0.009279 -0.008222 -0.999923
-0.011228 -0.029581 -0.018400 -0.000038 -0.005448 -0.999985
0.034659 -0.027575 -0.018008 0.016536 -0.059892 -0.998068
-0.034475 0.028087 0.009621 -0.037491 0.012913 0.999214
-0.005526 0.044190 -0.012174 -0.287830 0.895666 -0.339022
0.014006 0.031962 0.009964 -0.007040 0.043225 0.999041
-0.026602 0.002296 0.009907 -0.061258 -0.009548 0.998076
0.032744 -0.020901 -0.018253 0.016572 -0.011825 -0.999793
0.015082 -0.035515 -0.018068 0.031148 -0.039477 -0.998735
-0.000638 -0.037925 -0.018272 0.013126 -0.002355 -0.999911
-0.007906 0.007371 0.010136 0.015969 0.004494 0.999862
-0.025147 0.016749 -0.017974 -0.032496 0.001791 -0.999470
0.035863 -0.013905 -0.018309 -0.007661 -0.021563 -0.999738
-0.031267 -0.027576 0.007032 -0.942330 -0.287405 0.171498
0.028250 0.016051 0.010612 0.425405 0.142490 0.893716
0.022977 0.050287 -0.011637 0.545137 0.835296 0.071460
0.024764 0.036389 0.009369 0.057530 0.028790 0.997929
-0.008679 0.000084 0.010168 0.023647 -0.016815 0.999579
0.008671 0.028511 0.009987 -0.037149 0.024957 0.998998
-0.038753 0.034281 0.009363 -0.049107 0.173228 0.983657
-0.042699 0.018237 -0.000486 -0.968893 -0.247286 -0.009756
0.011286 -0.010759 -0.018427 -0.002750 0.000870 -0.999996
-0.037919 -0.001269 0.002739 -0.969662 -0.244064 -0.013728
-0.008746 -0.033119 0.009504 0.026232 -0.039257 0.998885
0.000893 -0.004012 -0.018410 -0.018064 -0.006132 -0.999818
-0.033003 0.029888 0.009596 0.003799 0.030343 0.999532
-0.014608 0.012379 0.010148 0.017318 0.011648 0.999782
-0.000297 0.000199 -0.018391 -0.017029 -0.004277 -0.999846
0.008783 -0.041207 0.006783 0.212693 -0.898757 0.383402
0.032705 -0.029261 -0.017949 0.024764 -0.061556 -0.997796
0.022822 0.004030 -0.018368 0.006645 0.006893 -0.999954
0.034499 0.004856 -0.013897 0.976804 0.210891 0.037133
-0.005927 -0.037612 0.009213 0.027184 -0.073222 0.996945
-0.008901 0.044212 -0.001459 -0.226622 0.973950 -0.008000
0.006244 0.031479 0.009807 -0.033353 0.027249 0.999072
-0.040834 0.030444 0.009515 -0.030989 0.012410 0.999443
0.010693 0.029480 -0.018269 0.000391 0.018576 -0.999827
0.035118 -0.014325 0.010071 0.052195 -0.006032 0.998619
0.015998 0.012298 0.010466 -0.051447 -0.002765 0.998672
0.028842 -0.037656 -0.008668 0.212735 -0.977059 0.009919
-0.011787 -0.005732 -0.018314 -0.010911 0.003386 -0.999935
-0.011690 0.040810 -0.017537 -0.085495 0.353841 -0.931390
0.023699 -0.036314 -0.017164 0.181536 -0.635492 -0.750463
0.009848 -0.038856 -0.017869 0.081895 -0.410778 -0.908050
-0.037605 0.003791 0.008996 -0.265602 -0.101683 0.958705
0.010798 -0.033662 -0.018227 0.035371 -0.052575 -0.997990
-0.039406 0.036905 0.003599 -0.233553 0.967447 0.097468
-0.024195 -0.016577 -0.018105 -0.034279 0.000251 -0.999412
-0.028181 -0.040176 -0.003239 -0.971366 -0.237440 -0.008351
-0.020978 0.030799 -0.017862 -0.030116 0.021586 -0.999313
0.020217 -0.023388 0.009396 -0.037045 -0.064797 0.997211
-0.031013 0.030732 0.009539 -0.001582 0.045783 0.998950
-0.004663 0.023316 0.009764 0.013813 0.033864 0.999331
0.032438 0.001188 -0.018287 -0.026793 0.018566 -0.999469
0.036998 -0.007178 0.007614 0.951352 0.275121 -0.138700
0.023660 0.015178 0.010825 -0.055717 0.053326 0.997022
0.006386 0.047761 -0.000145 -0.232013 0.972559 0.017310
-0.044254 0.025637 -0.015685 -0.954048 -0.226966 -0.195651
-0.027038 -0.044776 0.007327 -0.949427 -0.168172 0.265152
0.020955 -0.039435 -0.008347 0.203142 -0.979084 -0.011326
0.013324 0.018761 0.010296 -0.035889 0.016323 0.999222
-0.016303 0.022818 -0.018158 -0.019546 0.010916 -0.999749
0.012786 -0.022924 0.009247 0.004450 -0.028980 0.999570
-0.022571 0.041037 0.000061 -0.233925 0.972104 0.017127
-0.021224 0.021528 -0.018055 -0.025423 0.015462 -0.999557
0.033520 0.001683 -0.018313 0.190335 0.052223 -0.980329
-0.029459 -0.035072 0.001482 -0.971425 -0.237004 -0.012738
0.029971 0.010352 0.010744 0.659637 0.252072 0.708053
-0.027681 0.005127 0.009859 -0.081243 -0.019768 0.996498
0.035204 0.001404 -0.012864 0.971395 0.224756 0.076662
0.040744 -0.021497 -0.011647 0.968649 0.240950 0.060520
0.015201 0.006561 -0.018408 0.002501 0.001089 -0.999996
0.018374 0.042109 -0.018041 -0.002550 0.003383 -0.999991
-0.006658 0.035297 0.009112 0.002503 0.069991 0.997544
0.009939 0.008309 0.010187 -0.036449 -0.011798 0.999266
0.033177 -0.035705 0.005286 0.246300 -0.924267 0.291663
-0.014695 -0.003815 0.010260 -0.002753 0.014072 0.999897
0.029613 0.024797 0.001708 0.983004 0.180157 0.035293
0.029930 0.023247 0.001388 0.985041 0.166849 0.043070
0.015843 0.038546 -0.018053 -0.001166 0.024881 -0.999690
-0.013357 0.033939 -0.018013 -0.011024 0.006584 -0.999918
-0.004772 -0.034136 -0.018424 0.002187 -0.006899 -0.999974
-0.004877 -0.010321 0.009935 0.033816 -0.017187 0.999280
0.034948 -0.024042 -0.018155 0.017147 -0.026254 -0.999508
0.030736 0.007043 0.011006 0.426054 0.112176 0.897716
-0.037286 0.007399 -0.017512 -0.047707 -0.031356 -0.998369
0.041357 -0.024657 -0.008099 0.969748 0.242232 0.030201
-0.012316 -0.027246 -0.018439 -0.015176 0.009787 -0.999837
0.017737 0.049920 0.004604 -0.219826 0.955741 0.195542
-0.006156 -0.044040 -0.016901 0.210874 -0.935010 -0.285111
0.037404 -0.034466 -0.010999 0.116292 -0.724775 -0.679100
-0.015530 0.026374 0.009743 0.006562 0.041744 0.999107
0.042546 -0.031708 -0.013161 0.937810 -0.339543 0.072265
-0.036574 0.019672 -0.017476 -0.053998 0.010124 -0.998490
0.019032 0.049501 0.007869 -0.190933 0.887197 0.420031
-0.041886 0.014861 0.002202 -0.969574 -0.244759 -0.004375
-0.024227 -0.029682 0.009730 -0.029975 -0.048829 0.998357
0.006180 0.007049 -0.018374 -0.003480 0.002834 -0.999990
-0.030945 0.006018 -0.017726 -0.045243 -0.005502 -0.998961
-0.022979 -0.049774 -0.007150 -0.207534 -0.978222 0.003440
0.028107 0.004422 0.010974 -0.008925 -0.045608 0.998920
-0.021402 0.040418 -0.012011 -0.233949 0.927947 -0.290141
-0.029352 0.034298 0.009312 0.009354 0.062022 0.998031
0.030070 -0.033490 -0.017720 0.085958 -0.305545 -0.948290
0.032375 -0.019412 -0.018270 0.020768 -0.023119 -0.999517
-0.030246 -0.023255 -0.017928 -0.014154 0.020193 -0.999696
0.041937 -0.027937 0.004785 0.981270 0.190215 -0.030449
-0.012339 0.021270 0.009928 0.027810 0.040821 0.998779
-0.028443 -0.040122 -0.013874 -0.968791 -0.241494 0.055907
0.001098 -0.009019 0.009807 0.034454 -0.013850 0.999310
0.024012 0.012527 0.010887 -0.048653 -0.001887 0.998814
-0.041589 0.017774 -0.017239 -0.551300 -0.096667 -0.828688
-0.038326 0.037132 -0.009193 -0.199935 0.977812 -0.062521
0.024540 -0.023310 0.009545 -0.036945 -0.060947 0.997457
-0.030279 -0.031871 -0.018034 -0.644866 -0.120490 -0.754739
0.034030 0.003230 -0.017985 0.652181 0.156328 -0.741769
0.031589 0.008621 0.008859 0.946338 0.215300 0.241018
-0.025110 -0.032672 0.009588 -0.035318 -0.063991 0.997325
-0.036552 -0.000619 -0.017557 -0.139434 -0.036171 -0.989571
-0.044843 0.027367 -0.009486 -0.971081 -0.237660 -0.022778
-0.032209 -0.023387 -0.003364 -0.968946 -0.246871 -0.014088
0.020051 0.042344 0.009282 0.008937 0.060959 0.998100
0.035846 -0.002178 -0.010457 0.970230 0.230343 0.074807
0.003265 0.000749 -0.018389 0.007649 0.004379 -0.999961
0.009947 0.031649 0.009912 -0.027410 0.021221 0.999399
-0.035121 0.033144 0.009418 -0.000715 0.060579 0.998163
-0.029234 0.039432 -0.002790 -0.242394 0.969762 -0.028415
-0.009439 -0.005197 -0.018336 -0.010347 -0.000071 -0.999946
-0.014254 0.042805 -0.010544 -0.182986 0.964400 -0.190918
-0.021565 -0.030769 -0.018274 -0.002541 -0.010209 -0.999945
0.031319 -0.031654 -0.017849 0.017144 -0.055165 -0.998330
0.039566 -0.033757 -0.012124 0.301234 -0.902633 -0.307428
0.023939 0.049416 -0.004286 0.620957 0.782974 0.036925
-0.023490 0.037754 0.009032 -0.027040 0.173677 0.984431
0.033282 -0.018806 -0.018261 0.028349 -0.035457 -0.998969
-0.033967 0.018580 0.009598 -0.047735 -0.003416 0.998854
0.035433 -0.035907 0.001405 0.215701 -0.972222 0.090872
0.011309 -0.016503 -0.018454 -0.005762 0.028526 -0.999576
0.017202 -0.021037 0.009421 -0.038225 -0.047238 0.998152
-0.044275 0.024557 -0.003187 -0.968807 -0.247436 -0.013719
0.018484 0.049507 -0.016407 -0.230519 0.877849 -0.419812
0.018983 0.034156 0.009760 0.041495 0.072084 0.996535
-0.035131 0.005734 0.009333 -0.104279 -0.043684 0.993588
-0.023290 -0.045556 -0.018495 0.007566 -0.028419 -0.999567
-0.006902 0.042395 0.008569 -0.058533 0.230582 0.971291
-0.002289 -0.019292 -0.018414 -0.002666 0.000840 -0.999996
-0.030962 0.019830 0.009779 -0.050834 0.008128 0.998674
-0.006640 0.017912 0.009972 0.023492 0.025661 0.999395
0.024764 0.036389 0.009369 0.057530 0.028790 0.997929
0.026509 0.037871 -0.017111 0.846592 0.205637 -0.490913
0.025520 0.017692 -0.018245 0.016012 0.006158 -0.999853
0.041638 -0.026354 0.009025 0.611050 0.149891 0.777271
-0.015739 -0.000658 0.010299 0.001369 -0.017532 0.999845
0.038229 -0.013939 -0.017699 0.803315 0.170239 -0.570704
-0.021213 0.039993 -0.015719 -0.216276 0.958336 -0.186593
-0.012651 0.026951 0.009698 0.005489 0.045237 0.998961
-0.033633 -0.018113 0.001388 -0.969559 -0.244396 -0.015005
-0.012406 -0.000609 0.010242 0.014057 -0.026624 0.999547
-0.040542 0.028928 0.009519 -0.036696 -0.004758 0.999315
0.029873 -0.036044 0.006668 0.198047 -0.934508 0.295756
-0.005591 -0.031218 0.009522 0.028047 -0.028415 0.999203
-0.023922 -0.004242 0.010099 -0.065067 0.000093 0.997881
-0.020551 -0.028269 -0.018259 -0.030824 0.029944 -0.999076
0.011132 0.045737 0.008973 -0.018439 0.140556 0.989901
0.008444 -0.015994 -0.018433 -0.002342 0.019798 -0.999801
-0.035090 0.006478 -0.017523 -0.051290 -0.016109 -0.998554
0.034108 -0.017405 0.010061 0.027978 -0.035299 0.998985
-0.015578 0.042651 -0.001576 -0.223741 0.974600 -0.009737
0.039302 -0.035442 -0.007764 0.186680 -0.981273 0.047480
-0.018323 0.002161 -0.018179 -0.021259 0.002574 -0.999771
0.027001 0.034771 0.008934 0.705304 0.124520 0.697883
0.028332 -0.006038 -0.018478 0.015645 -0.009065 -0.999837
0.042730 -0.030629 -0.016732 0.936861 -0.097441 -0.335851
-0.032727 0.027261 0.009659 -0.010664 0.027276 0.999571
0.004713 0.004593 -0.018384 -0.001940 0.004156 -0.999989
-0.023810 -0.013238 -0.018092 -0.031766 0.005090 -0.999482
-0.001692 -0.008663 -0.018387 -0.003149 0.000873 -0.999995
-0.041651 0.015177 -0.014126 -0.970014 -0.241246 -0.029553
-0.012029 -0.029495 0.009716 0.026635 -0.037968 0.998924
0.011462 0.019366 0.010226 -0.033923 0.008812 0.999386
0.010844 -0.025928 0.009192 0.018757 -0.032887 0.999283
0.036801 -0.008152 -0.017902 0.743557 0.173371 -0.645806
-0.013548 0.008561 -0.018256 -0.015819 0.000517 -0.999875
0.007101 0.040788 -0.018052 -0.012393 0.046599 -0.998837
0.031563 0.010785 0.006142 0.979234 0.170441 0.109773
-0.009519 -0.046409 -0.000332 0.217263 -0.976022 0.013358
-0.041410 0.013257 -0.002650 -0.971438 -0.236672 -0.017158
0.005005 0.017886 -0.018370 -0.000941 -0.000778 -0.999999
0.034063 0.005938 -0.011115 0.974104 0.213265 0.075102
0.030430 -0.003855 0.010333 0.146830 -0.021399 0.988930
-0.000112 -0.043309 -0.011750 0.192745 -0.910434 -0.366003
0.027902 0.033996 -0.000011 0.974675 0.222431 0.023080
-0.030267 -0.031523 -0.003664 -0.974141 -0.225745 -0.009458
0.036519 -0.003533 -0.014738 0.971474 0.236607 -0.015984
0.021087 0.013521 0.010709 -0.068044 0.031428 0.997187
0.034948 -0.024042 -0.018155 0.017147 -0.026254 -0.999508
-0.015479 -0.029958 -0.018375 -0.005877 -0.006622 -0.999961
-0.031282 -0.023873 -0.017935 -0.181455 0.007440 -0.983371
0.006386 -0.027079 -0.018469 -0.004793 -0.016015 -0.999860
0.018229 0.036763 -0.018125 0.001280 0.023762 -0.999717
0.023606 0.050330 -0.014525 0.638693 0.769264 0.017450
-0.007545 -0.009330 0.010080 0.029287 -0.032635 0.999038
0.024966 -0.009367 0.010360 -0.055913 -0.049623 0.997202
0.010292 -0.041936 -0.002692 0.208308 -0.977618 -0.029510
0.033668 0.006746 -0.017000 0.895601 0.218179 -0.387680
0.011059 0.048888 -0.000981 -0.227793 0.973640 0.011658
-0.029519 -0.034723 -0.000269 -0.971129 -0.238539 -0.002739
-0.013797 -0.020599 -0.018353 -0.021219 0.002817 -0.999771
0.021209 -0.037735 -0.014630 0.238720 -0.956973 -0.164969
-0.028732 0.012538 0.009940 -0.060412 -0.011821 0.998104
-0.003864 -0.042827 0.008212 0.124938 -0.540587 0.831959
-0.019329 -0.020251 0.010053 -0.002035 -0.011023 0.999937
0.015454 0.049633 -0.011918 -0.297771 0.922600 -0.245239
-0.001304 0.045962 -0.001630 -0.228911 0.973425 -0.006612
-0.011789 -0.017759 0.010017 -0.000265 -0.029255 0.999572
0.042396 -0.029639 -0.005809 0.996604 0.081218 0.013564
-0.037295 -0.003883 -0.016168 -0.968949 -0.222818 -0.107191
0.039919 -0.022639 -0.018034 0.494916 0.077141 -0.865510
-0.028493 -0.025798 0.009320 -0.215138 -0.044637 0.975563
0.019616 0.043397 0.009211 0.014859 0.052598 0.998505
0.023617 0.040334 -0.018047 -0.041161 0.011892 -0.999082
-0.025339 -0.010415 0.009984 -0.055673 -0.001875 0.998447
-0.014891 -0.046324 0.007668 0.189394 -0.774580 0.603453
0.022917 -0.019599 -0.018430 0.019130 -0.064289 -0.997748
0.024002 -0.021332 0.009626 -0.036289 -0.056035 0.997769
-0.001598 0.016375 -0.018388 0.014830 0.002649 -0.999887
-0.014925 -0.026366 0.009878 0.008813 -0.036433 0.999297
0.019304 -0.039721 -0.008260 0.190116 -0.981742 -0.006253
0.020895 -0.031018 -0.018135 0.022899 -0.058245 -0.998040
-0.020699 0.010398 0.010132 -0.014687 0.003480 0.999886
-0.008901 0.044212 -0.001459 -0.226622 0.973950 -0.008000
-0.008901 -0.026165 0.009801 0.020438 -0.044573 0.998797
0.030658 0.009983 0.009969 0.797067 0.295854 0.526455
0.013773 -0.031118 -0.018293 0.021091 -0.040058 -0.998975
0.037983 -0.015812 -0.018251 0.195428 0.048927 -0.979497
-0.030156 -0.000408 -0.017769 -0.045365 0.003726 -0.998964
0.006086 -0.008094 0.009666 0.016908 -0.022169 0.999611
0.016733 -0.016240 -0.018533 -0.008895 0.016682 -0.999821
0.004211 -0.031821 0.009163 0.041958 -0.041349 0.998263
-0.010489 0.041050 0.008668 0.021538 0.180556 0.983329
0.042257 -0.032678 0.003141 0.962632 0.222576 0.154269
0.022852 0.002799 0.010748 -0.077116 -0.038634 0.996273
-0.013169 -0.001793 0.010186 0.016753 -0.013344 0.999771
-0.011682 0.009175 0.010172 0.003712 0.030535 0.999527
0.028916 -0.037380 0.002773 0.262205 -0.963775 0.048837
0.028887 -0.004449 -0.018446 0.019417 0.029371 -0.999380
0.030374 0.021049 -0.000506 0.984638 0.167241 0.050189
-0.019137 -0.026779 0.009879 0.004638 -0.043953 0.999023
0.000644 -0.035820 0.009100 0.034334 -0.065386 0.997269
0.040207 -0.020380 -0.003883 0.967938 0.251014 0.009414
0.017663 0.049395 0.006476 -0.212609 0.952989 0.215894
0.029833 -0.017784 -0.018391 0.039780 -0.076760 -0.996256
-0.018912 0.037103 0.009092 -0.005815 0.091629 0.995776
0.027121 -0.035635 -0.016955 0.179759 -0.716702 -0.673813
0.016304 -0.018739 -0.018481 -0.005288 0.009901 -0.999937
0.026483 0.004301 -0.018328 0.014683 0.005564 -0.999877
-0.024490 0.009253 -0.017956 -0.024515 -0.013940 -0.999602
-0.027254 -0.043791 -0.005190 -0.976390 -0.215541 -0.014327
0.027106 0.037847 -0.000925 0.977072 0.212003 0.019639
-0.002122 -0.042723 -0.017521 0.201598 -0.755218 -0.623702
0.016165 -0.039352 -0.011620 0.216988 -0.878094 -0.426459
0.015262 -0.037199 0.008440 0.065449 -0.168551 0.983518
0.020787 0.051002 0.000169 0.205190 0.974712 -0.088512
-0.001171 0.010289 0.009995 0.020130 0.016874 0.999655
0.006243 -0.003950 -0.018405 -0.001064 0.000636 -0.999999
0.032102 -0.018255 -0.018334 0.023544 -0.070809 -0.997212
-0.041322 0.022423 0.009274 -0.057211 -0.019956 0.998163
0.011607 0.037071 -0.018092 -0.001621 0.031275 -0.999509
0.011412 -0.040015 0.007734 0.117291 -0.700257 0.704190
0.021010 0.050660 -0.006224 0.365244 0.929623 0.048970
0.042194 -0.029035 0.003000 0.992962 0.114502 0.030265
-0.023480 -0.049519 -0.005828 -0.377982 -0.925696 -0.014718
-0.014302 -0.029102 0.009791 0.021789 -0.036696 0.999089
0.020068 0.022883 0.010425 -0.007894 0.032482 0.999441
0.010327 0.027568 -0.018307 0.000496 0.013973 -0.999902
0.005196 0.043795 0.008912 -0.039655 0.095222 0.994666
-0.007511 0.000304 0.010122 0.031851 -0.008976 0.999452
-0.001336 -0.035109 0.009197 0.031479 -0.055898 0.997940
0.002132 -0.028857 0.009372 0.031263 -0.023022 0.999246
0.032573 0.006566 0.002831 0.972105 0.222556 0.074027
0.025821 0.027111 -0.018155 -0.004244 0.012499 -0.999913
0.001619 0.034330 0.009534 -0.055945 0.046544 0.997348
-0.006781 0.041681 -0.017591 -0.049628 0.180011 -0.982412
0.016184 -0.032864 0.008713 0.011397 -0.073688 0.997216
0.031555 0.014828 -0.003131 0.979785 0.190707 0.060433
-0.023517 -0.006827 0.010086 -0.064811 -0.027810 0.997510
0.017748 0.044340 0.009159 -0.001499 0.081820 0.996646
0.004005 0.022003 0.009951 -0.043765 0.007549 0.999013
0.006004 -0.027295 0.009292 0.031082 -0.025307 0.999196
-0.035057 -0.012537 0.002643 -0.968614 -0.248060 -0.015898
0.014282 -0.014321 0.009576 -0.029123 -0.043986 0.998608
-0.023355 -0.050043 -0.001814 -0.222388 -0.973201 -0.058514
