-0.004887 0.052196 -0.003094 -0.698400 0.557636 -0.448642
-0.026564 -0.058532 0.013165 -0.360069 -0.156480 0.919709
0.031091 0.069249 0.011765 0.225323 0.332666 0.915731
-0.011221 -0.032670 0.018016 0.201541 -0.080263 0.976186
0.030772 0.073169 0.010009 0.120673 0.582122 0.804097
-0.028528 0.008072 0.000487 -0.952399 0.264196 -0.152107
0.001632 -0.024934 -0.002764 0.962603 -0.122664 -0.241557
0.029311 0.038359 -0.000181 0.778759 -0.626208 -0.037404
-0.019388 -0.027744 -0.016509 0.054663 0.026661 -0.998149
0.027417 0.040861 -0.010284 0.562815 -0.552697 -0.614625
0.003276 0.051094 0.017117 -0.234219 0.264376 0.935546
-0.002711 0.027742 0.019476 -0.097246 0.066117 0.993062
0.029504 0.043531 0.009998 0.687180 -0.477512 0.547509
0.025393 0.069820 -0.011496 -0.323403 0.703673 -0.632657
0.056090 0.065713 -0.005132 0.418618 -0.811186 0.408334
0.014073 0.019532 -0.005664 0.821535 -0.458872 -0.338402
0.053128 0.064321 -0.012968 0.161108 -0.432218 -0.887261
0.012081 0.036680 0.018848 0.145542 -0.013688 0.989257
0.046245 0.057883 -0.000140 0.761986 -0.576541 0.294920
-0.019448 -0.045346 0.016749 -0.098975 -0.112180 0.988746
0.013928 0.020703 0.011999 0.744758 -0.398091 0.535592
-0.000942 -0.064219 0.006192 0.853537 -0.030043 0.520166
-0.002461 -0.089666 -0.008915 0.784103 -0.177152 -0.594811
0.002845 0.045007 0.018362 -0.143106 0.154932 0.977505
0.001607 0.046424 -0.015130 -0.418894 0.335111 -0.843936
0.001233 -0.012715 0.012045 0.780399 -0.196827 0.593495
-0.000512 0.009090 0.019280 0.216594 -0.121169 0.968713
0.055886 0.066284 -0.003866 0.443798 -0.773445 0.452577
0.072557 0.067662 -0.010120 0.919809 -0.383946 0.080856
0.039172 0.076506 -0.002449 0.159031 0.986665 0.034671
-0.019021 -0.075806 0.011587 -0.208738 -0.264579 0.941502
-0.033713 -0.055700 0.003410 -0.963233 -0.135895 0.231764
0.002283 0.046751 0.017965 -0.191386 0.188828 0.963180
0.058252 0.073022 -0.013753 -0.211771 0.573556 -0.791320
-0.009718 -0.043433 0.016265 0.482883 -0.096844 0.870313
0.062268 0.074855 -0.013304 -0.194469 0.710640 -0.676145
-0.001561 -0.088160 -0.007943 0.901648 -0.140287 -0.409085
0.072164 0.073760 -0.006019 0.747588 0.391181 0.536740
0.006541 -0.003176 0.007355 0.897015 -0.297371 0.327007
0.005832 0.004704 -0.009204 0.735097 -0.238556 -0.634604
-0.015747 -0.096171 -0.010305 -0.537688 -0.408065 -0.737818
-0.000056 -0.045023 -0.003378 0.977880 -0.025916 -0.207554
-0.021989 -0.083021 0.007816 -0.466024 -0.409128 0.784497
-0.019496 0.015358 0.015863 -0.681372 0.224679 0.696600
0.024041 0.062145 0.015171 0.161224 0.193520 0.967759
-0.005221 0.043971 -0.010644 -0.653031 0.452687 -0.607145
-0.027512 -0.037393 0.015537 -0.387012 -0.064630 0.919807
-0.014887 0.009277 -0.015911 -0.143440 0.047461 -0.988520
-0.000565 -0.070655 0.004911 0.880228 -0.062453 0.470424
-0.002319 -0.013302 0.015655 0.629975 -0.181252 0.755169
0.012804 0.021016 -0.009502 0.662731 -0.369503 -0.651349
0.040818 0.074032 -0.010551 0.067872 0.803046 -0.592039
0.017081 0.022128 0.007787 0.828250 -0.462619 0.316204
-0.029655 -0.001868 -0.003580 -0.871826 0.213302 -0.440933
-0.023640 -0.067469 0.012259 -0.292908 -0.174413 0.940098
-0.032891 -0.047481 0.009172 -0.890335 -0.097453 0.444755
0.054726 0.074552 -0.007394 -0.087352 0.978816 0.185174
-0.001952 -0.080750 -0.009852 0.761316 -0.118724 -0.637419
-0.010192 -0.066429 -0.015385 0.241509 -0.059464 -0.968575
-0.032762 -0.021152 0.008859 -0.907900 0.100286 0.407014
0.000341 -0.041800 -0.001945 0.984809 -0.045570 -0.167556
0.053712 0.062908 -0.010841 0.472889 -0.873916 -0.112458
0.027673 0.036443 0.002697 0.795509 -0.594399 0.117707
-0.008740 0.035759 -0.012376 -0.674581 0.367874 -0.640008
-0.023863 -0.000686 0.016202 -0.581647 0.131883 0.802679
-0.007601 0.029803 -0.015611 -0.284358 0.150623 -0.946812
-0.024146 0.006035 0.013842 -0.765755 0.227078 0.601711
-0.020773 -0.052702 0.015500 -0.141511 -0.158737 0.977127
-0.030050 -0.074377 0.002260 -0.899315 -0.358964 0.249753
0.025420 0.062632 -0.016350 -0.084314 0.199076 -0.976350
0.004839 -0.008629 0.007575 0.902610 -0.283802 0.323653
-0.004503 -0.080425 -0.011847 0.489853 -0.134485 -0.861370
0.007835 0.009605 -0.008970 0.772348 -0.281301 -0.569516
-0.002127 -0.058945 -0.010837 0.823444 0.036353 -0.566232
0.048678 0.073774 -0.002574 0.373512 0.853618 0.363078
0.018698 0.031806 -0.010628 0.473380 -0.364057 -0.802106
0.017228 0.067254 -0.009381 -0.424366 0.685038 -0.592145
-0.002344 -0.029933 -0.010605 0.659025 -0.045224 -0.750760
0.044967 0.071080 -0.013248 0.068820 0.650473 -0.756405
-0.013601 -0.004901 -0.015971 0.109551 -0.028925 -0.993560
0.038947 0.052024 0.005535 0.708982 -0.551818 0.439138
-0.001219 -0.079215 -0.009074 0.887379 -0.095179 -0.451109
0.003040 -0.016538 0.007397 0.919657 -0.194218 0.341336
-0.022579 -0.045765 0.016287 -0.188998 -0.114482 0.975281
0.035245 0.071071 -0.013522 -0.125388 0.659472 -0.741198
-0.014937 -0.046480 -0.016226 0.171877 0.015192 -0.985001
-0.008261 -0.002985 0.019347 0.037364 -0.040500 0.998481
-0.005791 -0.002619 -0.014267 0.329338 -0.099775 -0.938926
0.029595 0.046459 0.012078 0.627701 -0.412793 0.659995
-0.010735 -0.088820 -0.013211 0.183215 -0.127863 -0.974722
0.009527 0.065950 0.008297 -0.542166 0.778907 0.315214
-0.008545 -0.100275 0.001016 0.305877 -0.844537 0.439541
0.008279 0.037225 0.019199 0.059496 0.030209 0.997771
-0.001236 0.057492 0.005567 -0.720820 0.670761 0.174640
-0.024163 -0.033186 -0.016307 -0.293065 0.023666 -0.955800
0.000232 -0.052809 -0.001392 0.994247 0.012639 -0.106361
0.055775 0.074056 -0.005268 0.001673 0.855585 0.517660
0.024368 0.043628 0.015066 0.556720 -0.338067 0.758798
-0.000784 0.049331 -0.011004 -0.611667 0.513120 -0.602140
-0.028579 -0.019238 -0.011354 -0.786610 0.135663 -0.602362
-0.010821 0.039657 0.013047 -0.713508 0.449558 0.537405
-0.009855 0.037945 0.015520 -0.624877 0.393726 0.674173
0.027450 0.050411 0.015411 0.405942 -0.134903 0.903888
-0.005125 -0.037552 -0.012443 0.503559 0.011113 -0.863889
-0.018190 -0.009474 0.018507 -0.164717 0.005427 0.986326
0.014886 0.068250 0.010734 -0.456313 0.788197 0.412945
-0.004083 -0.015245 0.016591 0.567647 -0.158437 0.807883
-0.027961 -0.046831 0.014382 -0.413550 -0.115180 0.903166
-0.032773 -0.012980 0.005899 -0.954140 0.148308 0.260041
0.021081 0.064885 -0.014298 -0.335428 0.610133 -0.717792
-0.021319 0.021606 0.010240 -0.823517 0.320616 0.468002
0.031189 0.074282 0.008953 0.044106 0.782391 0.621224
-0.004094 -0.034307 -0.011759 0.540434 0.000724 -0.841386
-0.009347 -0.078016 0.011367 0.392676 -0.242802 0.887047
-0.004246 0.010503 -0.015255 0.236883 -0.095075 -0.966875
0.019035 0.029660 -0.008718 0.699382 -0.535097 -0.473852
0.035864 0.054941 -0.014544 0.304859 -0.375486 -0.875255
0.002499 -0.020537 -0.001744 0.967318 -0.147705 -0.206104
0.041259 0.051399 -0.003849 0.701768 -0.712090 -0.021213
0.034101 0.062410 0.012321 0.344344 0.139939 0.928356
-0.020718 0.026836 0.006597 -0.868421 0.397907 0.295830
0.020182 0.040458 0.016638 0.487549 -0.281819 0.826362
0.018001 0.026348 -0.006329 0.758940 -0.521506 -0.389925
0.019839 0.069967 0.011709 -0.271182 0.753416 0.599020
-0.023150 -0.090687 -0.003865 -0.912993 -0.401548 -0.072129
0.025610 0.064938 0.014232 0.178023 0.257289 0.949795
0.000624 0.001400 -0.011987 0.463652 -0.150523 -0.873138
-0.025348 -0.045594 -0.015939 -0.467719 -0.024067 -0.883549
-0.017931 -0.064143 -0.016533 0.014110 -0.054246 -0.998428
-0.006744 -0.004429 -0.014399 0.314640 -0.090965 -0.944842
-0.034525 -0.027257 0.005537 -0.956831 0.065474 0.283175
0.037751 0.076710 -0.004799 0.122977 0.989595 -0.074686
0.024368 0.043628 0.015066 0.556720 -0.338067 0.758798
-0.026754 0.001839 -0.006877 -0.818116 0.237173 -0.523866
0.030959 0.055928 0.014051 0.339828 0.066356 0.938144
-0.022400 -0.069696 0.012237 -0.262737 -0.198444 0.944240
-0.006076 -0.031983 0.015117 0.618329 -0.114079 0.777596
-0.030091 -0.074667 0.001509 -0.923601 -0.344595 0.167973
-0.017467 0.015242 -0.013202 -0.688122 0.256483 -0.678752
-0.002134 -0.093707 -0.006195 0.959859 -0.215448 -0.179589
0.003386 0.023637 0.019608 0.088460 -0.028436 0.995674
-0.025015 0.009288 0.011248 -0.807932 0.261144 0.528251
-0.030914 -0.050667 0.011772 -0.762268 -0.129080 0.634260
-0.000443 -0.021623 0.011658 0.780327 -0.158056 0.605069
0.001296 0.016050 -0.014335 0.334722 -0.163139 -0.928088
0.039871 0.050237 -0.001112 0.719664 -0.689676 0.080185
-0.025269 -0.083917 0.003226 -0.826320 -0.450203 0.338396
-0.029760 -0.048643 -0.011695 -0.781404 -0.054630 -0.621629
0.029292 0.073524 -0.009081 -0.254319 0.771975 -0.582560
0.012789 0.044041 0.018659 0.082739 0.041548 0.995705
-0.001304 -0.011644 0.015185 0.660908 -0.181871 0.728096
-0.008043 0.039705 0.016179 -0.573829 0.366704 0.732290
-0.004350 -0.085690 -0.011010 0.524240 -0.073751 -0.848371
-0.025347 0.001623 0.013943 -0.773320 0.209652 0.598350
-0.030703 -0.063137 -0.007676 -0.861515 -0.130553 -0.490660
-0.009718 -0.043433 0.016265 0.482883 -0.096844 0.870313
0.001998 0.030175 -0.015948 0.130367 -0.102903 -0.986111
0.060594 0.069523 -0.015245 -0.138359 -0.262248 -0.955030
-0.021465 -0.010520 0.017762 -0.265130 0.022628 0.963947
-0.006949 0.016784 0.019583 -0.086225 0.021792 0.996037
0.028023 0.045496 0.012959 0.617041 -0.390889 0.682984
0.026842 0.041716 0.011735 0.673960 -0.429628 0.600997
-0.003957 -0.037450 0.012543 0.682385 -0.089519 0.725491
-0.034597 -0.052451 -0.000522 -0.989314 -0.134155 -0.057093
0.054553 0.065003 -0.004776 0.523781 -0.765032 0.374673
-0.021659 -0.032057 -0.016614 -0.039882 0.021420 -0.998975
0.022184 0.045879 -0.014752 0.243668 -0.317174 -0.916530
0.049977 0.060870 -0.003937 0.727726 -0.649833 0.219390
0.064946 0.069300 -0.004229 0.170728 -0.321507 0.931389
0.010849 0.047845 -0.016437 -0.031154 0.014601 -0.999408
0.045861 0.058321 0.001493 0.756143 -0.540769 0.368533
0.018284 0.040732 0.017766 0.355119 -0.165115 0.920124
-0.022263 -0.024061 -0.016364 -0.116545 0.042494 -0.992276
-0.015756 -0.035951 0.017905 -0.031673 -0.070236 0.997027
-0.000355 -0.047124 0.006141 0.906239 -0.064928 0.417750
0.024977 0.032760 0.001197 0.804433 -0.593988 -0.008077
-0.030449 -0.052610 0.011914 -0.707634 -0.142227 0.692117
-0.033927 -0.037063 -0.005495 -0.914300 0.009642 -0.404924
-0.005834 -0.098084 -0.008309 0.516616 -0.725138 -0.455283
0.029946 0.052892 -0.015365 0.202664 -0.323730 -0.924189
-0.029070 0.000351 -0.003628 -0.864800 0.220588 -0.451067
-0.003834 -0.088682 0.004804 0.677523 -0.243599 0.693990
0.054846 0.072711 -0.013035 -0.201679 0.636978 -0.744033
-0.030067 -0.009082 0.010908 -0.854527 0.161851 0.493546
0.010354 0.067248 0.006155 -0.532807 0.810708 0.242630
-0.027654 -0.064194 0.011354 -0.502744 -0.240020 0.830445
0.069428 0.067735 -0.006462 0.020915 -0.867582 0.496855
-0.030438 -0.031178 -0.011036 -0.804698 0.068610 -0.589707
-0.004894 -0.086543 0.006406 0.581992 -0.235363 0.778389
0.025414 0.038580 0.010975 0.695125 -0.464166 0.548954
0.044030 0.056100 0.001937 0.750880 -0.558449 0.352583
-0.031590 -0.037821 0.012426 -0.808014 -0.035604 0.588086
-0.004539 0.028515 -0.016156 -0.053890 0.024670 -0.998242
0.039527 0.064413 -0.015797 0.159359 -0.041759 -0.986337
0.028578 0.074993 0.006646 -0.183170 0.932293 0.311895
-0.028477 -0.048565 0.013909 -0.439803 -0.126432 0.889150
-0.004293 -0.053756 0.010981 0.676626 -0.073301 0.732669
-0.003516 0.005992 -0.014510 0.331233 -0.124815 -0.935257
-0.033213 -0.036938 -0.006975 -0.891024 0.012651 -0.453780
-0.001245 -0.089787 0.000370 0.938369 -0.216655 0.269304
0.038276 0.065483 -0.015965 0.091035 0.047768 -0.994701
-0.004433 0.026098 0.019394 -0.119533 0.069890 0.990367
-0.017796 0.003828 -0.015624 -0.324157 0.093721 -0.941349
-0.015904 -0.085421 0.008993 -0.240293 -0.329007 0.913243
-0.007894 0.032469 -0.014772 -0.524894 0.286721 -0.801422
-0.019402 -0.058223 -0.016696 -0.013823 -0.018302 -0.999737
-0.027632 -0.074685 0.007284 -0.785874 -0.326431 0.525210
-0.001720 0.030321 0.019385 -0.095997 0.081411 0.992047
-0.000403 -0.083180 0.001424 0.939529 -0.089661 0.330524
-0.028197 -0.015565 0.014918 -0.683946 0.105200 0.721908
-0.035334 -0.040607 0.002584 -0.989533 -0.048515 0.135907
0.011008 0.053853 0.017701 -0.059920 0.184513 0.981002
-0.030984 -0.005513 0.007254 -0.924762 0.200898 0.323196
-0.006085 -0.081590 -0.012457 0.409549 -0.135786 -0.902126
-0.016268 -0.088168 -0.013156 -0.329612 -0.203495 -0.921925
-0.014945 -0.024104 -0.015895 0.183343 0.007741 -0.983019
-0.016875 -0.022952 0.018341 -0.125184 -0.043858 0.991164
0.049895 0.060183 -0.008897 0.629139 -0.776461 -0.035951
-0.006675 -0.085482 -0.012228 0.406215 -0.077065 -0.910522
0.016647 0.068201 0.012259 -0.330893 0.744059 0.580419
-0.026666 -0.015131 -0.012743 -0.725987 0.165372 -0.667529
-0.014810 0.018142 0.017959 -0.315274 0.118591 0.941562
0.069339 0.069268 -0.016549 -0.086207 -0.315115 -0.945130
-0.016051 -0.099903 -0.006384 -0.571247 -0.735435 -0.364434
-0.011011 0.038761 0.013561 -0.723330 0.425966 0.543457
-0.021109 0.018299 0.012468 -0.788800 0.284525 0.544831
0.036347 0.076743 -0.000926 0.065232 0.992957 0.098899
0.015816 0.018424 0.004631 0.889069 -0.452330 0.070386
-0.002834 -0.046717 0.010243 0.748666 -0.072803 0.658938
-0.034519 -0.032579 0.006418 -0.942231 0.025065 0.334023
-0.016070 -0.028832 0.018229 -0.082074 -0.040218 0.995814
-0.014084 0.038511 -0.003133 -0.772389 0.472770 -0.424150
-0.018603 -0.093517 -0.009347 -0.623378 -0.417747 -0.660974
-0.004986 -0.056598 -0.013016 0.514757 0.048628 -0.855956
-0.024508 -0.050853 -0.016126 -0.424077 -0.060523 -0.903602
-0.025914 -0.027072 0.016510 -0.331113 -0.006872 0.943566
0.019946 0.072327 0.006833 -0.370072 0.889236 0.268899
-0.027902 -0.007025 0.013405 -0.774890 0.170206 0.608750
-0.000663 0.014662 0.019552 0.071920 -0.046685 0.996317
0.031866 0.043568 -0.007661 0.647063 -0.667915 -0.367694
-0.015175 -0.031215 -0.016097 0.180030 0.030791 -0.983179
-0.025458 -0.008663 0.016141 -0.541197 0.089203 0.836151
-0.017853 0.011720 0.017560 -0.332816 0.099681 0.937708
0.013027 0.022272 0.014134 0.671840 -0.367916 0.642860
-0.024063 -0.012607 0.017036 -0.370148 0.036954 0.928238
-0.017297 -0.050671 -0.016606 0.090494 0.011455 -0.995831
0.032991 0.043235 -0.004403 0.695381 -0.685327 -0.216269
-0.025301 -0.006405 0.015981 -0.587438 0.123236 0.799831
-0.002596 -0.049453 -0.010666 0.813914 0.043673 -0.579341
0.003653 0.047731 0.018016 -0.159205 0.190100 0.968770
0.037308 0.076794 -0.003251 0.108553 0.994063 0.007356
-0.034696 -0.028611 0.005263 -0.960318 0.071358 0.269625
-0.021659 -0.032057 -0.016614 -0.039882 0.021420 -0.998975
0.048191 0.060330 -0.000420 0.761674 -0.554731 0.334852
-0.028226 -0.080245 -0.001387 -0.923771 -0.382426 0.019923
0.034934 0.045748 -0.006042 0.669278 -0.690662 -0.273957
-0.000290 0.002220 0.017921 0.511329 -0.203237 0.835008
0.000310 -0.004738 0.015630 0.642140 -0.207189 0.738058
-0.003398 0.007786 0.019461 0.070566 -0.035386 0.996879
0.050278 0.061877 -0.012463 0.285892 -0.536181 -0.794214
-0.020454 -0.008619 -0.015846 -0.237502 0.084287 -0.967724
-0.033923 -0.027561 0.007323 -0.931309 0.062847 0.358768
0.053764 0.064480 -0.004560 0.611112 -0.705333 0.359232
0.047161 0.072761 0.000027 0.692313 0.349089 0.631537
-0.008295 -0.031234 -0.013925 0.402921 0.013403 -0.915136
-0.027335 -0.023749 0.015949 -0.415233 0.021543 0.909460
-0.013859 0.041702 0.003763 -0.830449 0.520732 0.197973
0.022634 0.071325 0.011078 -0.224135 0.803822 0.551030
0.061805 0.069084 -0.003754 0.215542 -0.260304 0.941161
0.001116 -0.020004 -0.006685 0.926791 -0.146758 -0.345717
-0.034421 -0.029630 0.006342 -0.943117 0.055688 0.327763
-0.023640 -0.067469 0.012259 -0.292908 -0.174413 0.940098
-0.026394 -0.054404 -0.014508 -0.638095 -0.093509 -0.764259
0.008657 0.019568 -0.011754 0.471310 -0.240757 -0.848471
0.021542 0.032290 -0.007985 0.700721 -0.560847 -0.440954
0.032821 0.044448 0.005925 0.739099 -0.568865 0.360729
-0.017266 -0.004727 -0.016076 -0.057081 0.028475 -0.997963
0.004393 0.063477 0.002111 -0.657213 0.750109 0.073544
0.000428 -0.013172 -0.009866 0.656252 -0.110897 -0.746348
-0.006314 0.006170 0.019594 0.027373 -0.016944 0.999482
-0.007247 0.040375 0.016455 -0.519214 0.339454 0.784339
0.023760 0.069675 -0.010768 -0.342981 0.704559 -0.621257
-0.022402 0.023970 -0.001064 -0.876376 0.361633 -0.318098
-0.005210 -0.049483 0.012269 0.649633 -0.093891 0.754428
-0.029083 -0.067377 0.009045 -0.788400 -0.230182 0.570475
-0.010540 0.030981 -0.013051 -0.664745 0.335430 -0.667533
-0.028216 -0.022053 -0.012394 -0.760584 0.119473 -0.638152
0.001007 0.003464 0.017422 0.550085 -0.225728 0.804023
0.034932 0.072047 -0.012575 -0.153783 0.709090 -0.688144
0.054746 0.073793 -0.004863 0.060085 0.780530 0.622223
0.022443 0.064716 -0.015009 -0.287883 0.558456 -0.777978
-0.006609 -0.019162 -0.013401 0.397294 -0.026158 -0.917318
0.055351 0.063912 -0.012028 0.312754 -0.872137 -0.376248
-0.003017 -0.052093 -0.011395 0.695627 0.019587 -0.718136
0.034252 0.047479 0.007478 0.712965 -0.522736 0.467363
-0.015984 -0.076316 0.011955 -0.136966 -0.247316 0.959205
-0.011146 -0.015394 0.018986 -0.001803 -0.030808 0.999524
-0.015025 0.018926 -0.014125 -0.625966 0.260035 -0.735220
-0.026512 -0.022053 0.016282 -0.374460 -0.007602 0.927212
0.022732 0.029654 0.002275 0.821316 -0.569162 0.038654
-0.006456 -0.034124 -0.013095 0.440387 0.012239 -0.897725
-0.004482 -0.052461 -0.012476 0.551340 0.033915 -0.833591
0.037426 0.047681 -0.000665 0.736578 -0.672438 0.072667
-0.028461 -0.079294 0.000806 -0.904929 -0.375128 0.200955
0.011553 0.012294 -0.002741 0.880476 -0.392921 -0.265282
0.008438 0.004418 0.008985 0.871847 -0.297238 0.389271
0.044165 0.075334 -0.007345 0.193479 0.963145 -0.186861
-0.015411 -0.089009 0.007773 -0.231574 -0.325814 0.916634
-0.013373 -0.046694 -0.015911 0.223839 0.012603 -0.974545
-0.018092 -0.078155 -0.015056 -0.170702 -0.184498 -0.967895
-0.002343 -0.038881 -0.010323 0.795150 -0.006047 -0.606383
-0.002556 -0.077622 0.006486 0.749986 -0.158742 0.642123
-0.008062 0.002614 -0.015450 0.214040 -0.077633 -0.973735
-0.021518 -0.080411 -0.012699 -0.588687 -0.273577 -0.760660
-0.014366 -0.066794 -0.016079 0.123397 -0.076816 -0.989380
0.054655 0.072214 -0.003643 0.156456 0.497440 0.853273
0.020242 0.026538 -0.001166 0.800068 -0.561369 -0.211556
-0.011187 -0.059003 -0.015750 0.245344 0.010485 -0.969379
-0.003021 0.038189 -0.015639 -0.332838 0.217495 -0.917559
-0.010025 0.040054 0.013741 -0.703088 0.453376 0.547829
-0.009732 0.048326 0.001660 -0.817385 0.572800 -0.061503
-0.004390 -0.079241 0.007857 0.617260 -0.202343 0.760295
-0.030868 -0.025281 0.012912 -0.833269 0.051574 0.550457
-0.003293 -0.038373 0.011792 0.711791 -0.087823 0.696879
0.000522 0.050553 0.016458 -0.374441 0.365791 0.852051
-0.025470 -0.018260 -0.014540 -0.614008 0.149880 -0.774939
-0.011530 -0.021510 -0.015121 0.272986 -0.015739 -0.961889
0.000116 -0.070362 0.003514 0.913170 -0.051824 0.404270
-0.018559 -0.083439 0.009023 -0.275746 -0.361210 0.890782
0.025383 0.075031 0.003221 -0.283117 0.949321 0.136508
0.071280 0.069059 -0.016190 0.575242 -0.203268 -0.792325
-0.028129 -0.075366 -0.007536 -0.813886 -0.284659 -0.506517
-0.004467 -0.029805 0.014120 0.656962 -0.128615 0.742872
-0.023557 -0.081528 -0.010496 -0.648680 -0.325740 -0.687828
0.006816 0.004708 -0.007512 0.863305 -0.301589 -0.404659
0.065957 0.075311 -0.007142 -0.022915 0.942912 0.332254
0.000074 -0.014328 0.012982 0.753082 -0.187859 0.630536
-0.029803 -0.060610 -0.009666 -0.807027 -0.133042 -0.575332
-0.017743 -0.094160 0.004460 -0.441680 -0.499408 0.745326
0.020866 0.063656 -0.015152 -0.319416 0.510995 -0.798034
-0.014257 0.023843 -0.012800 -0.670712 0.313001 -0.672440
0.011834 0.010629 0.002569 0.911650 -0.400981 -0.090044
-0.033922 -0.021383 0.005891 -0.954561 0.116042 0.274495
-0.014366 -0.066794 -0.016079 0.123397 -0.076816 -0.989380
0.017248 0.048555 -0.016374 0.068876 -0.126957 -0.989514
0.041797 0.066771 -0.015407 0.186781 0.021491 -0.982167
0.056847 0.067129 -0.003383 0.425924 -0.714034 0.555648
-0.028461 -0.079294 0.000806 -0.904929 -0.375128 0.200955
-0.022808 -0.007841 0.017291 -0.358142 0.053786 0.932117
-0.006887 -0.038874 0.014844 0.599825 -0.098656 0.794026
-0.024877 -0.004171 -0.011766 -0.747462 0.195958 -0.634745
-0.008039 -0.038997 -0.013964 0.413098 0.027038 -0.910285
-0.010165 -0.074151 0.012522 0.331143 -0.177268 0.926780
0.071621 0.076190 -0.009879 0.572325 0.810475 0.124801
0.032121 0.045157 0.008116 0.722218 -0.513438 0.463447
-0.025553 -0.036500 0.016285 -0.286570 -0.041823 0.957146
-0.004350 0.054793 0.000282 -0.739057 0.655100 -0.156965
-0.031348 -0.068707 -0.004404 -0.920442 -0.195357 -0.338558
0.000182 -0.079952 0.000743 0.979221 -0.116776 0.165803
-0.008532 -0.007143 -0.014741 0.288975 -0.068263 -0.954900
-0.012261 0.000975 0.019334 -0.089275 -0.008396 0.995972
-0.020792 -0.093140 -0.007089 -0.763135 -0.431278 -0.481274
-0.003620 -0.046012 -0.011654 0.639168 0.025459 -0.768646
0.000308 -0.031062 -0.005171 0.953269 -0.085063 -0.289902
-0.031874 -0.023066 -0.007162 -0.876652 0.132518 -0.462516
-0.004343 0.034378 0.018570 -0.180332 0.124296 0.975721
-0.001350 -0.040064 -0.008295 0.925995 -0.037709 -0.375647
-0.034500 -0.051391 -0.002026 -0.971280 -0.101832 -0.215049
-0.004503 -0.080425 -0.011847 0.489853 -0.134485 -0.861370
-0.018621 0.023066 -0.008088 -0.764740 0.317638 -0.560606
0.003037 0.060090 0.009582 -0.632514 0.679739 0.371323
0.070775 0.069211 -0.004798 0.143029 -0.427425 0.892665
0.004851 0.028085 0.019593 0.069164 -0.010500 0.997550
-0.018384 0.033792 0.001006 -0.880829 0.454720 -0.131794
0.020915 0.060145 0.016011 0.119872 0.205340 0.971322
-0.009470 -0.052067 0.014995 0.482968 -0.108373 0.868906
-0.002159 -0.073674 0.006795 0.754376 -0.110484 0.647078
-0.029471 -0.030268 -0.012184 -0.763508 0.091763 -0.639245
0.011897 0.042711 0.018782 0.072979 0.035465 0.996703
0.008798 0.060812 -0.009687 -0.527480 0.616163 -0.584901
0.047071 0.061911 0.003321 0.763237 -0.366145 0.532360
0.017904 0.062523 -0.014675 -0.359412 0.551662 -0.752657
-0.008349 -0.078540 -0.013757 0.299494 -0.148245 -0.942511
0.000574 -0.075891 0.001017 0.989982 -0.061092 0.127293
-0.013998 -0.097053 0.004006 -0.182216 -0.550200 0.814910
-0.009232 0.042741 0.012490 -0.717911 0.461825 0.520886
-0.005366 -0.039342 0.013566 0.642831 -0.097367 0.759795
-0.034871 -0.042417 0.004886 -0.969069 -0.057694 0.239952
0.013871 0.070322 -0.000915 -0.507759 0.853874 -0.114373
0.014555 0.028371 0.015835 0.604197 -0.331560 0.724579
-0.015394 0.007632 -0.015904 -0.145696 0.036618 -0.988651
-0.017807 -0.056879 -0.016689 0.043499 -0.001640 -0.999052
-0.022964 -0.090972 -0.002286 -0.912922 -0.401813 0.071549
0.046079 0.057413 -0.010602 0.592577 -0.724147 -0.352793
-0.026754 0.001839 -0.006877 -0.818116 0.237173 -0.523866
-0.035328 -0.032461 -0.001251 -0.962944 0.054556 -0.264128
-0.020696 -0.016441 0.018022 -0.199376 -0.019698 0.979725
-0.023549 -0.051257 -0.016457 -0.263730 -0.037401 -0.963871
-0.015690 0.015715 0.017948 -0.306035 0.086611 0.948072
-0.031248 -0.070891 0.001886 -0.937796 -0.268489 0.220119
0.006436 -0.004694 0.006140 0.935782 -0.289148 0.201755
0.014319 0.042788 0.018532 0.124102 0.020636 0.992055
-0.004753 -0.007177 -0.013369 0.387184 -0.096087 -0.916982
0.025712 0.047953 0.015813 0.463683 -0.199967 0.863140
-0.000006 -0.046812 0.005378 0.952855 -0.051434 0.299035
-0.027347 -0.046728 -0.014385 -0.662876 -0.052635 -0.746877
-0.011412 0.041580 0.010381 -0.766303 0.459086 0.449466
0.000672 -0.070497 -0.003375 0.992924 0.000223 -0.118750
0.000742 -0.066217 -0.001386 0.997884 0.035154 -0.054690
0.026346 0.073740 -0.007185 -0.325519 0.804351 -0.497048
0.014319 0.042788 0.018532 0.124102 0.020636 0.992055
0.031367 0.041228 0.003146 0.766189 -0.610948 0.199241
0.034252 0.047479 0.007478 0.712965 -0.522736 0.467363
0.009060 0.004825 0.007717 0.896823 -0.307566 0.317980
0.069924 0.066861 -0.008459 0.079331 -0.929233 0.360879
-0.013007 -0.020515 -0.015495 0.214197 -0.006290 -0.976770
-0.005851 0.022243 0.019486 -0.112648 0.053974 0.992168
-0.008707 0.039132 0.015931 -0.620189 0.357495 0.698257
-0.022714 -0.005885 0.017186 -0.357843 0.069242 0.931211
-0.001233 -0.089774 -0.005657 0.971093 -0.196162 -0.136009
0.063063 0.075730 -0.009804 -0.063651 0.985964 0.154347
-0.001530 0.022680 -0.015755 0.147162 -0.080556 -0.985827
-0.008402 0.050068 0.002632 -0.789141 0.606942 0.094216
-0.005810 0.007457 0.019598 0.027515 -0.010006 0.999571
-0.011245 0.012003 -0.016182 -0.032148 0.008267 -0.999449
0.008721 0.064558 0.010134 -0.542300 0.750223 0.378254
-0.021000 -0.094721 -0.003953 -0.845939 -0.528482 -0.071369
-0.026324 -0.035286 0.016086 -0.338775 -0.048566 0.939613
-0.011369 0.033608 0.016295 -0.590183 0.309626 0.745531
-0.030207 -0.027474 0.014016 -0.769401 0.028617 0.638124
-0.030277 -0.013618 0.011788 -0.842351 0.126071 0.523977
-0.023571 -0.087945 -0.006520 -0.811912 -0.389570 -0.434781
0.008081 0.010763 0.013489 0.742437 -0.311155 0.593270
0.000054 -0.010312 -0.010562 0.568025 -0.122638 -0.813823
0.014319 0.042788 0.018532 0.124102 0.020636 0.992055
0.022799 0.067600 0.013800 0.066951 0.380342 0.922420
0.002680 0.030570 0.019599 -0.012908 0.035878 0.999273
-0.020128 0.030236 0.000787 -0.892629 0.429035 -0.138359
-0.022979 -0.036264 -0.016621 -0.125569 0.020375 -0.991876
-0.031785 -0.051903 0.010208 -0.860345 -0.131422 0.492479
0.020145 0.032469 -0.010053 0.567864 -0.462844 -0.680666
0.003266 0.053532 0.016365 -0.325262 0.354321 0.876733
0.003092 -0.020148 0.003315 0.985354 -0.168635 0.025305
-0.001458 -0.060338 0.007231 0.812846 -0.002575 0.582472
-0.022353 0.021005 -0.003573 -0.815966 0.334040 -0.471823
-0.027270 -0.029996 -0.014479 -0.630215 0.052763 -0.774626
-0.001295 -0.071745 0.006012 0.819746 -0.082221 0.566794
-0.009243 -0.081583 -0.013625 0.292350 -0.106232 -0.950393
-0.034913 -0.045590 0.003587 -0.986074 -0.066769 0.152314
-0.000373 0.045832 -0.014142 -0.558113 0.425789 -0.712189
-0.022065 -0.063623 -0.016189 -0.314060 -0.107291 -0.943321
-0.034725 -0.042333 -0.003319 -0.944853 -0.027184 -0.326364
0.053160 0.072572 -0.003519 0.210232 0.553694 0.805745
0.010168 0.015261 -0.009075 0.733851 -0.356287 -0.578379
-0.002916 -0.092926 -0.008570 0.781451 -0.168153 -0.600882
-0.012553 -0.077255 0.012127 -0.017318 -0.240317 0.970540
0.005390 -0.009205 0.003369 0.969274 -0.244360 -0.028213
0.009210 0.005997 0.008458 0.875684 -0.324656 0.357459
0.006303 -0.005203 0.001390 0.955587 -0.266034 -0.126802
0.000509 0.032979 0.019351 -0.073144 0.074783 0.994514
-0.021138 -0.086060 -0.010544 -0.647366 -0.330452 -0.686818
-0.022811 -0.003870 -0.013868 -0.639852 0.177464 -0.747727
-0.019973 -0.094693 -0.006910 -0.735452 -0.481663 -0.476562
-0.002651 -0.051380 -0.010888 0.801007 0.055021 -0.596122
-0.022816 -0.038515 -0.016673 -0.108853 0.020863 -0.993839
-0.002584 -0.095351 -0.006280 0.922912 -0.331547 -0.195730
-0.023841 -0.004683 -0.013071 -0.703898 0.185737 -0.685587
-0.015165 -0.073746 -0.015592 0.066680 -0.083753 -0.994253
0.025119 0.033036 0.002807 0.800011 -0.591489 0.100612
-0.026108 -0.046070 0.015282 -0.351318 -0.106594 0.930168
-0.012917 0.020038 0.018328 -0.268499 0.096895 0.958394
-0.007019 -0.071815 -0.014107 0.334208 -0.068743 -0.939989
0.058555 0.069412 -0.003118 0.182312 0.141739 0.972971
-0.019798 -0.096468 -0.002327 -0.817504 -0.570963 0.075423
-0.005092 0.019828 0.019645 -0.068179 0.023735 0.997391
0.008081 0.010763 0.013489 0.742437 -0.311155 0.593270
0.018685 0.023401 0.002866 0.845360 -0.534183 -0.003927
-0.032393 -0.040585 -0.008376 -0.850297 -0.022389 -0.525826
-0.008626 0.042740 0.013334 -0.717286 0.443797 0.537163
0.000049 -0.081104 -0.003466 0.990866 -0.077708 -0.110212
0.033459 0.069381 0.011009 0.296309 0.293979 0.908723
-0.002543 0.041953 0.017810 -0.237987 0.184657 0.953553
0.001932 -0.023178 0.007053 0.926431 -0.160441 0.340564
-0.034725 -0.042333 -0.003319 -0.944853 -0.027184 -0.326364
0.011008 0.053853 0.017701 -0.059920 0.184513 0.981002
0.056988 0.074565 -0.006418 -0.068362 0.953246 0.294361
-0.000551 -0.067918 -0.008516 0.935594 0.025178 -0.352179
-0.030449 -0.052610 0.011914 -0.707634 -0.142227 0.692117
-0.019442 0.029353 0.006917 -0.863081 0.406284 0.300039
-0.008897 0.000357 0.019469 0.003843 -0.027742 0.999608
-0.017138 -0.075947 -0.015453 -0.028464 -0.118155 -0.992587
-0.028255 -0.016252 -0.011077 -0.784608 0.154018 -0.600558
0.000402 -0.059185 -0.001414 0.995250 0.040509 -0.088524
-0.031785 -0.051903 0.010208 -0.860345 -0.131422 0.492479
-0.008960 0.005673 -0.015823 0.144234 -0.053844 -0.988078
-0.012156 0.040049 0.010679 -0.765876 0.454501 0.454821
-0.002560 -0.012808 -0.011784 0.459360 -0.072830 -0.885259
0.000481 -0.047670 0.002598 0.997996 -0.012222 0.062090
0.013866 0.025250 0.014927 0.635770 -0.352619 0.686627
0.000334 -0.044401 0.004741 0.975741 -0.064464 0.209224
-0.015248 -0.065702 -0.016266 0.116692 -0.059937 -0.991358
-0.004151 -0.067365 -0.012999 0.508369 -0.003314 -0.861133
0.023040 0.058929 -0.016659 -0.063261 0.084975 -0.994373
-0.010942 -0.006831 -0.015415 0.230708 -0.054053 -0.971520
-0.009885 0.040481 -0.007819 -0.713559 0.433856 -0.550094
-0.010888 0.035453 0.015883 -0.635443 0.330225 0.697971
-0.007359 -0.079699 -0.013228 0.336226 -0.144516 -0.930627
-0.017751 0.013099 0.017453 -0.383715 0.117310 0.915970
-0.028469 -0.008954 -0.008581 -0.819748 0.186281 -0.541583
-0.014295 0.028504 -0.010334 -0.712456 0.345659 -0.610677
-0.004108 -0.098337 -0.004909 0.576187 -0.784394 -0.229638
-0.000297 -0.080671 0.001980 0.920805 -0.126611 0.368901
0.041452 0.052046 -0.006869 0.664044 -0.726719 -0.175856
-0.008386 -0.065140 0.012808 0.543553 -0.090855 0.834443
-0.015788 -0.031900 0.018107 -0.050697 -0.037297 0.998017
-0.033103 -0.011205 0.002565 -0.978100 0.188320 0.088636
-0.031997 -0.012484 -0.003575 -0.890118 0.163573 -0.425363
-0.000465 -0.026994 0.010378 0.812864 -0.138419 0.565767
-0.014367 -0.092277 -0.012652 -0.206272 -0.277309 -0.938377
-0.000085 -0.032910 -0.005870 0.946564 -0.080596 -0.312284
-0.013610 -0.032143 0.018151 0.008758 -0.056208 0.998381
0.002707 -0.017960 0.007547 0.916059 -0.188811 0.353815
-0.028806 -0.001137 -0.004792 -0.852711 0.222402 -0.472674
-0.017131 0.005061 -0.015718 -0.243107 0.073526 -0.967209
0.021303 0.071616 -0.006826 -0.393140 0.750892 -0.530662
-0.005100 -0.091242 0.005064 0.590888 -0.290496 0.752637
-0.021150 0.025238 0.007444 -0.873204 0.374766 0.311552
0.028550 0.047105 -0.013290 0.306843 -0.410205 -0.858824
-0.022401 0.019472 -0.004551 -0.811657 0.319855 -0.488781
0.028884 0.038697 -0.003984 0.724276 -0.642190 -0.251030
-0.022538 -0.074613 0.010995 -0.323582 -0.284049 0.902558
0.008685 0.003116 0.007165 0.908185 -0.306963 0.284559
-0.023037 -0.053257 -0.016525 -0.204313 -0.042554 -0.977980
0.040505 0.073978 0.005342 0.445545 0.604821 0.660062
-0.006431 -0.073797 -0.013736 0.365214 -0.086907 -0.926858
0.023761 0.031263 0.003621 0.793737 -0.591958 0.139885
0.029448 0.041847 -0.008834 0.648124 -0.625001 -0.435096
0.002508 -0.019172 0.007379 0.921210 -0.187352 0.340985
-0.021438 0.001751 0.017195 -0.387462 0.085485 0.917914
-0.003431 -0.013980 0.016386 0.586918 -0.165440 0.792564
-0.008200 -0.090723 -0.012297 0.339334 -0.151966 -0.928310
0.003190 0.058877 -0.005945 -0.615894 0.599866 -0.510721
-0.022250 -0.017313 -0.016019 -0.209912 0.074180 -0.974902
-0.006560 -0.001334 -0.014654 0.300885 -0.100658 -0.948333
-0.018250 -0.066925 -0.016360 0.001324 -0.082195 -0.996615
-0.024129 0.021200 0.001416 -0.926309 0.371596 -0.062191
-0.005066 -0.097886 0.001190 0.683271 -0.486304 0.544655
-0.025806 -0.071375 -0.012035 -0.675597 -0.220104 -0.703650
0.003404 -0.018169 0.001679 0.981871 -0.175933 -0.070544
-0.035154 -0.041415 -0.002062 -0.961005 -0.021948 -0.275660
-0.005879 0.053063 0.002580 -0.725105 0.678860 0.115639
-0.031912 -0.061650 0.006231 -0.917190 -0.172792 0.359033
-0.024665 -0.011484 0.016731 -0.410962 0.045834 0.910499
-0.002172 -0.066237 0.007703 0.761033 -0.048179 0.646922
0.012117 0.061826 0.015411 -0.174283 0.385556 0.906075
-0.002080 -0.087098 -0.009030 0.793517 -0.081972 -0.603002
-0.002543 0.041953 0.017810 -0.237987 0.184657 0.953553
0.010261 0.010842 -0.004697 0.874132 -0.363123 -0.322543
0.002640 0.044134 -0.015959 -0.168751 0.125755 -0.977604
-0.021963 -0.066189 -0.015958 -0.363129 -0.135256 -0.921869
0.006105 -0.003064 0.008568 0.876090 -0.287879 0.386770
-0.009098 -0.054314 0.014491 0.507898 -0.100963 0.855480
-0.023921 0.018332 0.007500 -0.870894 0.344038 0.350972
-0.017058 0.036490 0.001518 -0.874983 0.477541 -0.079749
-0.006540 -0.057662 0.012367 0.595965 -0.088046 0.798169
-0.007600 0.044324 0.013409 -0.702848 0.460528 0.542143
0.006235 0.002509 -0.007103 0.880980 -0.289692 -0.374103
0.045060 0.057895 0.002453 0.751246 -0.532665 0.389740
0.017642 0.046134 0.017959 0.162204 0.027202 0.986382
-0.001949 -0.093953 -0.001925 0.957382 -0.273147 0.093865
-0.024306 -0.000456 -0.011217 -0.754244 0.221870 -0.617972
-0.019917 -0.014672 -0.016180 -0.068995 0.019850 -0.997419
-0.013656 -0.068553 -0.015847 0.131494 -0.079516 -0.988123
-0.021256 0.008189 -0.011678 -0.748198 0.239393 -0.618781
0.064154 0.070411 -0.004105 0.146446 0.105951 0.983528
0.027230 0.035713 0.001773 0.794320 -0.605954 0.043311
-0.000578 -0.084005 -0.006130 0.971548 -0.086950 -0.220306
0.007326 0.059429 -0.009798 -0.547755 0.598237 -0.584874
-0.018424 0.024000 0.013183 -0.773458 0.317475 0.548610
0.028822 0.064254 0.013653 0.247789 0.198036 0.948358
-0.021195 -0.004414 0.017644 -0.307850 0.036021 0.950753
-0.029993 -0.020905 -0.009775 -0.822299 0.139537 -0.551683
0.034132 0.058464 -0.016103 0.179410 -0.185145 -0.966195
-0.026979 0.010041 0.007110 -0.907370 0.281569 0.312086
-0.000994 0.020876 -0.015513 0.170075 -0.089262 -0.981380
-0.013565 0.037991 -0.004543 -0.765252 0.449737 -0.460570
0.024291 0.032567 0.005196 0.803341 -0.554140 0.218113
-0.013345 -0.066798 -0.015941 0.139791 -0.074386 -0.987383
-0.019398 0.027975 -0.003608 -0.808062 0.362936 -0.464019
-0.016220 0.035934 -0.001971 -0.797549 0.456249 -0.394655
-0.005677 -0.042696 0.013442 0.635840 -0.077535 0.767916
-0.014147 0.038534 0.008393 -0.814224 0.466732 0.345255
-0.001724 -0.065282 -0.010782 0.833474 0.047578 -0.550507
-0.004084 -0.041140 0.012210 0.686740 -0.089825 0.721332
-0.008004 0.039011 0.016504 -0.516288 0.306820 0.799568
0.030959 0.055928 0.014051 0.339828 0.066356 0.938144
-0.004293 -0.053756 0.010981 0.676626 -0.073301 0.732669
-0.012223 0.011802 0.019072 -0.176765 0.052927 0.982829
-0.005676 -0.075783 -0.013215 0.411473 -0.103518 -0.905524
0.009561 0.048515 0.018400 -0.025411 0.115223 0.993015
0.000772 -0.025197 0.008868 0.876196 -0.142475 0.460414
0.008827 0.014690 0.014583 0.682431 -0.309933 0.661990
-0.002550 0.056036 0.005750 -0.724112 0.657279 0.208916
0.029493 0.038591 0.000466 0.780809 -0.624588 0.015109
0.036736 0.053897 0.009836 0.631618 -0.415272 0.654681
0.045113 0.066911 -0.014674 0.205861 -0.033405 -0.978011
-0.028801 0.000389 0.009203 -0.879136 0.229388 0.417733
-0.009020 -0.031390 0.017291 0.476427 -0.117550 0.871320
-0.025383 0.017945 0.001291 -0.946355 0.313284 -0.079160
0.040114 0.050743 -0.006556 0.660211 -0.726981 -0.188734
-0.006187 -0.058759 0.011971 0.603764 -0.092695 0.791755
-0.022976 -0.031976 -0.016527 -0.132864 0.018819 -0.990956
0.003097 -0.004672 -0.009033 0.714717 -0.204541 -0.668837
-0.021881 -0.093272 -0.003703 -0.866376 -0.497960 -0.037785
0.052529 0.068945 -0.001499 0.345538 0.411370 0.843432
-0.020091 -0.055951 -0.016715 -0.026562 -0.010647 -0.999590
-0.006425 -0.075983 0.010074 0.541967 -0.157904 0.825432
-0.021911 -0.067127 -0.015779 -0.433773 -0.177998 -0.883265
-0.028429 0.003332 0.008281 -0.891493 0.242737 0.382515
0.025414 0.038580 0.010975 0.695125 -0.464166 0.548954
-0.001602 -0.073816 -0.010506 0.806541 -0.061136 -0.588009
-0.024241 -0.080274 0.007849 -0.588400 -0.410000 0.696911
-0.002212 -0.086261 0.003802 0.790449 -0.195387 0.580529
-0.012684 -0.071462 -0.015490 0.144936 -0.075577 -0.986550
0.021666 0.028849 -0.001985 0.784866 -0.572310 -0.237585
-0.033491 -0.013479 0.002741 -0.978873 0.171012 0.112082
-0.009155 -0.061415 -0.015237 0.305193 0.011852 -0.952217
0.009410 0.024975 0.018153 0.473699 -0.259143 0.841697
-0.000271 0.024184 0.019743 -0.006479 0.019167 0.999795
0.000634 -0.029031 0.007916 0.899519 -0.119875 0.420114
-0.006388 -0.055883 -0.013756 0.462525 0.050888 -0.885144
-0.017796 0.003828 -0.015624 -0.324157 0.093721 -0.941349
0.005721 -0.007082 0.000959 0.957890 -0.250193 -0.140893
0.027804 0.043563 0.011959 0.657090 -0.422575 0.624230
0.008861 0.015042 -0.010194 0.584145 -0.269884 -0.765465
-0.008780 0.006811 0.019577 -0.032654 -0.001687 0.999465
-0.033244 -0.059460 -0.003238 -0.953814 -0.119747 -0.275498
-0.020889 0.002663 0.017295 -0.357458 0.088111 0.929764
-0.022359 -0.021339 0.017534 -0.211799 -0.035810 0.976657
-0.025663 -0.052892 -0.015288 -0.561140 -0.081663 -0.823683
-0.022702 -0.059610 -0.016291 -0.303311 -0.051551 -0.951496
0.051568 0.062540 -0.012456 0.276555 -0.465412 -0.840779
0.012684 0.019938 0.013078 0.715715 -0.373315 0.590244
-0.005760 -0.016347 0.017495 0.522222 -0.137219 0.841698
-0.024375 -0.002600 -0.011854 -0.742719 0.206496 -0.636967
-0.022015 0.025449 -0.000328 -0.892480 0.381197 -0.241180
-0.000148 -0.047967 -0.003626 0.977424 0.000558 -0.211287
0.053590 0.065621 -0.002408 0.593013 -0.604916 0.531425
0.004587 0.063728 0.000055 -0.648371 0.760601 -0.033199
0.027744 0.036733 -0.002265 0.760905 -0.623557 -0.179444
-0.025256 -0.035063 0.016456 -0.283035 -0.058798 0.957306
0.037596 0.050540 -0.010819 0.563071 -0.676563 -0.474567
0.027680 0.075424 0.004493 -0.212516 0.954218 0.210486
0.002287 0.059918 0.008515 -0.650679 0.689711 0.317672
-0.020892 -0.040039 0.017106 -0.142270 -0.081203 0.986491
-0.004165 -0.096064 0.001564 0.737379 -0.419380 0.529521
0.034828 0.076964 -0.003737 0.003007 0.998584 -0.053106
-0.031493 -0.070997 -0.000188 -0.961074 -0.273161 0.041472
-0.032718 -0.009979 0.003684 -0.969591 0.193192 0.150235
0.005085 0.017891 0.018606 0.436955 -0.192800 0.878577
-0.000064 -0.064777 0.004434 0.918292 -0.016928 0.395541
0.003037 0.060090 0.009582 -0.632514 0.679739 0.371323
-0.004476 -0.029658 -0.012044 0.502976 -0.008840 -0.864255
-0.014515 -0.050868 -0.016227 0.180558 0.022578 -0.983305
-0.020489 -0.054275 -0.016714 -0.027970 -0.006063 -0.999590
0.006889 0.030259 -0.015084 0.251427 -0.161930 -0.954234
0.048173 0.058592 -0.007269 0.699897 -0.714241 -0.002018
0.004566 0.020559 0.019320 0.249226 -0.126530 0.960144
-0.003539 -0.031725 0.012954 0.691650 -0.117953 0.712536
0.025517 0.052727 -0.016131 0.146307 -0.218393 -0.964831
0.058514 0.074255 -0.005585 0.008861 0.809959 0.586419
0.013852 0.057984 0.016929 -0.023026 0.229596 0.973014
-0.020005 -0.002119 0.017908 -0.289418 0.048553 0.955971
-0.024135 -0.085709 -0.007448 -0.776254 -0.367515 -0.512213
-0.001845 0.014744 -0.015116 0.231207 -0.108196 -0.966870
-0.000031 -0.066428 0.004293 0.911762 -0.032229 0.409453
-0.000683 0.042251 -0.015472 -0.376831 0.252171 -0.891296
0.072367 0.067855 -0.008004 0.842360 -0.499448 0.202437
0.008112 0.015391 0.015582 0.637051 -0.288928 0.714623
-0.007695 -0.089868 -0.012226 0.364597 -0.130260 -0.922010
-0.014191 0.020920 0.017841 -0.338132 0.121888 0.933172
-0.010468 0.042604 0.010905 -0.735863 0.482918 0.474653
-0.027687 -0.078560 -0.006448 -0.849653 -0.289904 -0.440506
-0.002016 -0.010531 0.016063 0.602971 -0.178380 0.777564
0.022345 0.057004 0.016337 0.188795 0.135948 0.972561
-0.008689 -0.064121 -0.015067 0.309214 -0.025954 -0.950638
0.000048 0.049497 0.016645 -0.337057 0.308190 0.889613
0.012492 0.042133 -0.015925 0.140556 -0.145494 -0.979324
-0.005851 0.022243 0.019486 -0.112648 0.053974 0.992168
-0.003023 -0.015903 0.015653 0.626633 -0.164116 0.761838
-0.018267 -0.001516 -0.015862 -0.181400 0.049674 -0.982154
-0.008011 -0.057243 -0.014632 0.390750 0.048095 -0.919240
0.008341 0.000824 0.004894 0.950075 -0.309267 0.041361
-0.027130 0.005055 0.009961 -0.849115 0.245798 0.467533
-0.001112 0.045519 0.017405 -0.261145 0.230949 0.937265
-0.020557 -0.057670 0.014787 -0.168135 -0.150305 0.974238
-0.014587 -0.092658 0.006474 -0.204280 -0.439351 0.874780
-0.021067 0.028000 0.003478 -0.900934 0.408980 0.145100
0.017764 0.049325 0.017827 0.135428 0.049907 0.989529
-0.004610 -0.043845 -0.012267 0.539722 0.029675 -0.841320
0.010520 0.049141 -0.016375 -0.071843 0.039623 -0.996629
-0.019048 0.027495 0.009758 -0.814908 0.376041 0.441042
0.000159 0.059615 0.001352 -0.708294 0.704561 0.043753
-0.007872 -0.100641 -0.001092 0.308345 -0.945506 0.104598
0.000762 0.042977 0.018358 -0.172074 0.156296 0.972606
0.047463 0.073058 -0.000491 0.603305 0.507906 0.614862
0.040156 0.058534 0.009393 0.606124 -0.278167 0.745142
-0.032663 -0.063941 -0.003177 -0.943554 -0.151481 -0.294551
0.066989 0.075565 -0.008246 -0.006563 0.978011 0.208452
0.004025 0.062750 0.004849 -0.649789 0.746515 0.143139
0.019854 0.052799 -0.016615 0.010868 -0.048497 -0.998764
-0.030207 -0.027474 0.014016 -0.769401 0.028617 0.638124
-0.013260 -0.092459 0.006825 -0.120899 -0.435638 0.891966
-0.010415 0.014744 0.019216 -0.156276 0.043935 0.986736
-0.002504 -0.094685 -0.006856 0.917380 -0.266867 -0.295290
0.042519 0.053176 -0.000229 0.728636 -0.651126 0.212425
-0.028197 -0.015565 0.014918 -0.683946 0.105200 0.721908
-0.017824 -0.013843 0.018562 -0.129242 -0.001952 0.991611
0.006416 0.056659 0.016173 -0.253585 0.342704 0.904571
0.037596 0.050540 -0.010819 0.563071 -0.676563 -0.474567
-0.011740 0.008101 0.019317 -0.132830 0.035050 0.990519
-0.003884 -0.035534 0.012735 0.688061 -0.093199 0.719643
0.004268 0.036289 -0.016250 0.062310 -0.057786 -0.996383
-0.034478 -0.034793 -0.004014 -0.932133 0.033985 -0.360518
0.005637 0.056303 -0.011202 -0.572910 0.551131 -0.606654
0.028940 0.044714 -0.011922 0.363014 -0.475882 -0.801098
-0.012882 -0.079420 0.011588 -0.042517 -0.288511 0.956532
0.022125 0.028801 0.002604 0.831699 -0.553091 0.048651
-0.019786 -0.076156 -0.014938 -0.371002 -0.201010 -0.906616
-0.022140 -0.051593 -0.016688 -0.094649 -0.017551 -0.995356
0.004175 0.061166 0.009567 -0.628168 0.687214 0.364886
0.049373 0.060112 -0.010812 0.532344 -0.783956 -0.319410
-0.010387 0.010394 -0.016155 0.026922 -0.022682 -0.999380
-0.032156 -0.064788 0.003704 -0.935927 -0.197585 0.291549
0.071404 0.065983 -0.013751 0.660563 -0.724417 -0.197171
0.064534 0.067516 -0.014878 -0.109849 -0.446194 -0.888169
0.000704 -0.074384 -0.000028 0.998433 -0.042998 0.035808
-0.010901 -0.041017 -0.015170 0.319493 0.016190 -0.947450
-0.023614 -0.063677 0.013004 -0.251998 -0.195901 0.947692
-0.006973 0.031100 -0.015606 -0.304342 0.179699 -0.935459
-0.010841 -0.000917 -0.015749 0.163873 -0.047158 -0.985354
0.044705 0.054970 -0.004735 0.731664 -0.681622 -0.007699
-0.003993 -0.023360 -0.011974 0.485681 -0.044219 -0.873017
-0.035453 -0.043878 0.000240 -0.998331 -0.056354 -0.012637
-0.011461 -0.037756 0.017600 0.230746 -0.089093 0.968927
-0.005300 -0.018387 0.016892 0.557438 -0.136089 0.818989
0.024246 0.031719 0.002158 0.815645 -0.577201 0.039536
-0.006938 0.000653 -0.015001 0.270132 -0.098941 -0.957726
-0.012286 -0.093115 -0.012611 0.008174 -0.208059 -0.978082
-0.023506 0.021189 -0.001165 -0.874905 0.354089 -0.330396
-0.021314 0.026613 0.005034 -0.888465 0.393158 0.236764
0.011203 0.017462 -0.009178 0.723238 -0.399972 -0.562982
-0.034125 -0.023530 0.005913 -0.948668 0.065696 0.309376
0.001689 0.053043 -0.010227 -0.595269 0.523589 -0.609516
-0.021109 0.018299 0.012468 -0.788800 0.284525 0.544831
-0.033031 -0.026825 -0.005959 -0.896071 0.107604 -0.430673
0.008690 0.066441 0.005182 -0.561875 0.801931 0.202984
0.019364 0.050233 0.017557 0.161222 0.055721 0.985344
-0.000565 -0.062127 -0.007501 0.953604 0.062065 -0.294597
0.021238 0.040227 0.015874 0.548103 -0.316047 0.774401
0.021907 0.034643 -0.010058 0.567528 -0.477422 -0.670806
0.059606 0.074124 -0.013257 -0.197615 0.649575 -0.734167
-0.016827 -0.100024 -0.003864 -0.674056 -0.735551 -0.067926
-0.015433 -0.034427 -0.016233 0.167765 0.029415 -0.985388
-0.015817 0.001767 0.018831 -0.193095 0.024803 0.980866
-0.014213 -0.021612 0.018651 -0.067836 -0.037093 0.997007
0.014888 0.016962 0.001957 0.877844 -0.466500 -0.108477
0.025710 0.066937 -0.014521 -0.246899 0.574557 -0.780337
-0.014366 -0.066794 -0.016079 0.123397 -0.076816 -0.989380
-0.004827 -0.042274 0.012752 0.665251 -0.082254 0.742075
-0.020467 -0.064427 -0.016434 -0.117108 -0.048438 -0.991937
-0.018023 0.031170 -0.003327 -0.793030 0.405909 -0.454248
0.058544 0.074504 -0.012606 -0.247168 0.726927 -0.640691
-0.002916 -0.092926 -0.008570 0.781451 -0.168153 -0.600882
-0.016218 -0.014702 -0.016070 0.098020 -0.009100 -0.995143
-0.009857 0.043332 -0.005319 -0.738925 0.477909 -0.474966
-0.029387 -0.073851 -0.006129 -0.871141 -0.254915 -0.419680
0.005230 0.055354 0.016292 -0.281155 0.333730 0.899764
-0.024288 -0.006141 -0.013019 -0.706249 0.177014 -0.685477
-0.019388 -0.027744 -0.016509 0.054663 0.026661 -0.998149
0.027255 0.044294 0.012972 0.630008 -0.392765 0.669944
-0.001045 -0.034235 -0.008318 0.916381 -0.064304 -0.395109
0.069631 0.076214 -0.012869 -0.129596 0.935904 -0.327550
-0.024071 -0.049140 0.015468 -0.235805 -0.150679 0.960048
-0.012594 -0.054169 0.015819 0.118910 -0.121193 0.985481
0.029799 0.075881 0.004273 -0.141216 0.964164 0.224601
-0.000259 -0.057719 0.005118 0.924598 -0.004780 0.380914
-0.002506 -0.043551 -0.010429 0.827706 -0.027115 -0.560506
-0.023920 -0.029455 0.017061 -0.232090 -0.025291 0.972366
-0.010330 -0.070686 -0.015113 0.218936 -0.066148 -0.973495
-0.017691 -0.039601 -0.016590 0.103570 0.002757 -0.994618
0.024527 0.032907 -0.002655 0.766432 -0.599539 -0.230511
-0.001762 -0.052027 0.008321 0.825722 -0.052304 0.561646
0.021231 0.053509 0.016969 0.182231 0.097898 0.978370
-0.023391 -0.020123 -0.015924 -0.312586 0.079542 -0.946553
0.025550 0.067781 -0.013718 -0.288840 0.656935 -0.696425
-0.015612 -0.044529 -0.016329 0.154965 0.005956 -0.987902
-0.020092 -0.021429 -0.016348 -0.009655 0.037696 -0.999243
0.026481 0.067243 0.013377 0.159458 0.304729 0.938996
-0.009412 0.040377 0.014271 -0.697568 0.442797 0.563321
-0.024584 0.019064 0.004272 -0.915865 0.350224 0.196301
0.013587 0.069969 0.003106 -0.501324 0.854988 0.132929
0.001057 -0.025088 -0.004746 0.948519 -0.115201 -0.295027
0.054899 0.065987 -0.003317 0.490103 -0.728005 0.479383
0.014110 0.029488 -0.012059 0.428997 -0.313123 -0.847299
0.013760 0.022605 -0.009413 0.673404 -0.413637 -0.612725
-0.008773 0.043864 0.012211 -0.734640 0.444523 0.512547
0.033173 0.043704 -0.005239 0.689034 -0.678801 -0.253894
-0.013662 -0.052568 0.016072 0.046810 -0.129875 0.990425
0.014973 0.065343 -0.009884 -0.444839 0.668613 -0.595882
-0.033763 -0.015095 0.002936 -0.979527 0.158852 0.123666
-0.008894 -0.058854 -0.015053 0.347924 0.046705 -0.936359
0.019617 0.032870 0.013505 0.659395 -0.378937 0.649312
-0.015586 0.028255 0.014551 -0.737587 0.331990 0.588004
0.008677 0.020475 0.017104 0.566962 -0.287910 0.771791
-0.001606 0.008617 -0.014183 0.356843 -0.137481 -0.923993
-0.006384 -0.067592 0.011190 0.575816 -0.080255 0.813631
0.001785 -0.007247 -0.009712 0.664876 -0.150309 -0.731674
-0.000188 -0.035298 -0.005620 0.951989 -0.066355 -0.298854
0.010423 0.016188 -0.009299 0.669952 -0.349170 -0.655168
0.029096 0.075985 0.002924 -0.196797 0.964591 0.175602
-0.010698 0.022508 -0.015754 -0.265346 0.125987 -0.955886
-0.021963 -0.066189 -0.015958 -0.363129 -0.135256 -0.921869
-0.003589 -0.034294 0.012606 0.697579 -0.098932 0.709645
0.007301 0.001851 0.009557 0.852176 -0.290289 0.435349
0.019891 0.025315 0.001832 0.840667 -0.539796 -0.043583
-0.026996 0.011730 0.005084 -0.928350 0.301863 0.216900
0.004223 -0.010213 -0.002430 0.946705 -0.209773 -0.244429
-0.022578 -0.015429 0.017623 -0.268372 0.000752 0.963315
-0.024794 -0.059006 0.013660 -0.271133 -0.164120 0.948447
0.002287 0.059918 0.008515 -0.650679 0.689711 0.317672
-0.015308 -0.000460 -0.016079 -0.023402 0.008881 -0.999687
-0.000330 -0.038167 -0.005492 0.956326 -0.056994 -0.286691
-0.011880 -0.065806 -0.015790 0.174102 -0.071405 -0.982135
0.018016 0.049628 -0.016439 0.060990 -0.106894 -0.992398
0.000116 -0.009397 0.014420 0.708241 -0.212342 0.673280
-0.004903 -0.078695 -0.012331 0.449256 -0.184689 -0.874104
-0.028625 -0.073915 -0.007480 -0.829594 -0.251315 -0.498612
-0.030288 -0.025605 0.013789 -0.773743 0.047559 0.631711
-0.005296 -0.077333 0.009041 0.580650 -0.172879 0.795587
